1750.2778,1751.4504,1751.8169,1752.6846,1753.2867,1753.2827,1753.9357,1754.834,1755.365,1756.4226,1757.1969,1756.6849,1755.9495,1755.7668,1755.7887,1756.0986,1756.4535,1756.9401,1757.3589,1757.6959,1758.2407,1758.8037,1759.6243,1760.0112,1759.7017,1759.0287,1758.5084,1758.645,1758.7937,1758.7196,1758.6539,1758.2377,1757.5431,1756.8008,1756.2411,1755.6758,1755.3627,1755.388,1755.1172,1754.6503,1754.2407,1753.5874,1753.1084,1753.0781,1752.9839,1752.7618,1752.3394,1751.8362,1751.512,1751.3083,1751.2947,1751.3729,1751.2178,1750.8577,1750.3765,1749.8618,1749.563,1749.9249,1750.1271,1749.4298,1748.3768,1747.3424,1745.9673,1744.29,1743.0786,1741.6794,1740.2883,1739.0366,1737.8132,1736.9619,1735.7142,1734.6005,1734.2128,1734.3391,1734.978,1735.5872,1736.0847,1736.3092,1736.4968,1736.891,1737.3953,1738.351,1739.5591,1740.5359,1740.8932,1740.816,1741.2147,1741.9208,1742.6187,1743.66,1745.0867,1746.3433,1747.8109,1748.8076,1749.2957,1749.579,1749.6582,1750.0363,1750.152,1749.8405,1749.5934,1749.1986,1748.5431,1747.5785,1746.7849,1746.0839,1745.512,1745.214,1744.7687,1744.2609,1743.7562,1743.1853,1742.9751,1743.292,1744.1001,1744.8726,1745.8126,1746.383,1746.4006,1746.0762,1745.8463,1746.6649,1746.9114,1745.9114,1741.015,1734.6124,1730.4789,1727.7806,1727.5189,1727.2999,1727.7926,1728.6329,1729.5579,1730.8,1731.8885,1734.2323,1738.0345,1742.7378,1751.9592,1760.7385,1765.728,1768.4563,1770.5153,1772.9192,1774.4708,1775.212,1775.5087,1775.3057,1774.7838,1774.0197,1773.4557,1773.2363,1773.5858,1774.1957,1774.9562,1775.4722,1775.936,1776.2472,1776.3423,1776.3823,1776.323,1776.242,1776.137,1776.068,1776.0339,1776.0356,1776.0541,1776.0188,1775.9775,1775.987,1775.9609,1775.891,1775.7589,1775.6637,1775.6697,1775.7178,1775.8484,1776.0027,1776.1719,1776.2993,1776.4382,1776.5802,1776.6509,1776.5948,1776.4778,1776.4338,1776.2566,1775.9395,1775.5347,1774.9586,1774.4817,1773.9716,1773.3348,1772.7456,1771.9142,1771.0585,1770.3114,1769.1459,1768.0558,1766.9183,1765.7173,1764.8354,1763.7628,1762.8599,1762.1952,1761.372,1760.7328,1760.1636,1759.5099,1758.9471,1758.011,1757.1459,1756.696,1756.2095,1755.8837,1755.5791,1755.4617,1755.5531,1755.588,1755.5884,1755.6525,1755.2722,1754.3137,1752.8049,1750.4637,1748.341,1744.3737,1739.5156,1735.916,1730.5227,1725.3351,1720.7615,1715.0342,1710.1823,1705.6731,1689.2366,1663.6702,1626.8008,1591.8871,1560.7695,1534.9021,1524.5625,1509.4374,1496.148,1488.7552,1482.7496,1481.6498,1484.7502,1484.7109,1476.3141,1448.6425,1400.8463,1357.6155,1311.9187,1284.6117,1274.8815,1274.139,1278.6418,1275.5088,1270.8628,1268.849,1270.7747,1273.997,1275.4673,1268.8348,1258.5708,1253.6147,1248.939,1244.9863,1246.5299,1250.7421,1252.4098,1253.0529,1252.4764,1252.3253,1250.6138,1247.8917,1243.285,1237.5537,1233.1007,1226.6572,1221.2938,1217.7218,1214.7515,1213.215,1211.6282,1210.5864,1210.0872,1209.8815,1210.0045,1209.8687,1210.5201,1211.6727,1213.0775,1213.2191,1212.0626,1206.9015,1199.2736,1192.6592,1183.2002,1175.2766,1168.364,1161.7413,1156.9473,1145.6661,1130.301,1116.9948,1094.3301
1750.5138,1751.6555,1751.9891,1752.8477,1753.3953,1753.2987,1753.8467,1754.6499,1755.1112,1756.0752,1756.762,1756.1396,1755.2976,1755.0597,1754.988,1755.2095,1755.5068,1755.9785,1756.4261,1756.7894,1757.3395,1757.8818,1758.6852,1759.0819,1758.8107,1758.177,1757.6825,1757.8429,1758.0156,1757.9528,1757.8658,1757.3975,1756.6482,1755.8927,1755.3547,1754.7968,1754.4755,1754.4829,1754.2058,1753.7281,1753.2996,1752.639,1752.1606,1752.1217,1752.0172,1751.7949,1751.4031,1750.9358,1750.625,1750.4258,1750.4186,1750.5178,1750.4038,1750.0853,1749.6425,1749.1748,1748.9174,1749.3175,1749.5446,1748.864,1747.8286,1746.8033,1745.4305,1743.7518,1742.5397,1741.1405,1739.767,1738.5494,1737.3713,1736.559,1735.3528,1734.2703,1733.895,1734.1207,1734.8792,1735.5435,1736.1462,1736.4509,1736.626,1737.0101,1737.5403,1738.5836,1739.8755,1740.8693,1741.2506,1741.1608,1741.479,1742.0911,1742.7603,1743.9269,1745.5259,1746.8616,1748.3856,1749.3823,1749.8812,1750.001,1749.7926,1749.7715,1749.4205,1748.7888,1748.1335,1747.4058,1746.5096,1745.4412,1744.6975,1743.996,1743.339,1742.9044,1742.226,1741.5446,1741.033,1740.4897,1740.2972,1740.5469,1741.3322,1742.1577,1742.8655,1743.1876,1743.3492,1742.5825,1740.6057,1737.0773,1733.353,1731.2292,1724.1935,1716.3257,1711.994,1710.0679,1710.9824,1711.3248,1712.1077,1712.9578,1713.9707,1715.33,1716.5405,1718.91,1722.7548,1727.6735,1737.2761,1746.5698,1752.9512,1758.4297,1763.5024,1767.7302,1769.743,1771.2148,1772.4362,1772.9324,1773.0457,1772.6926,1772.2474,1772.144,1772.5503,1773.206,1773.9824,1774.5077,1775.0863,1775.5549,1775.7511,1775.9132,1775.957,1775.9509,1775.9124,1775.8767,1775.8817,1775.9163,1775.9498,1775.9255,1775.8816,1775.8822,1775.8356,1775.7435,1775.5964,1775.4757,1775.4548,1775.4758,1775.5886,1775.7369,1775.904,1776.0344,1776.1768,1776.3223,1776.3943,1776.3401,1776.214,1776.1515,1775.9526,1775.6182,1775.1997,1774.6046,1774.1104,1773.5778,1772.9156,1772.3083,1771.4435,1770.5494,1769.766,1768.5688,1767.4639,1766.2969,1765.0677,1764.173,1763.0897,1762.1812,1761.5095,1760.6885,1760.0594,1759.4993,1758.8544,1758.2966,1757.2958,1756.3065,1755.7207,1755.1633,1754.8656,1754.5918,1754.533,1754.6772,1754.7448,1754.7286,1754.7572,1754.2147,1753.1201,1751.7383,1749.4878,1747.28,1742.8995,1737.4713,1733.5674,1727.9148,1720.4802,1709.7528,1693.5066,1679.2241,1662.5243,1637.1296,1609.3533,1571.3987,1538.6466,1512.1937,1493.9971,1490.3328,1482.6373,1475.8617,1472.1678,1468.0822,1467.5502,1472.3242,1476.3695,1473.0907,1454.0878,1413.4347,1371.858,1322.1156,1287.6926,1273.4869,1270.5333,1275.6428,1272.1893,1266.7832,1263.9181,1264.0591,1265.1655,1264.2537,1259.9833,1255.1678,1253.4015,1251.9097,1250.3536,1252.2225,1255.4374,1256.8612,1257.1785,1256.1743,1255.1288,1252.7778,1250.1168,1245.9645,1241.2664,1237.9023,1233.075,1228.8845,1225.5946,1222.5747,1220.9752,1219.8584,1219.7592,1220.0764,1221.6653,1223.962,1225.835,1228.7896,1231.5663,1234.778,1237.2697,1238.3597,1236.5112,1232.4316,1229.1742,1224.0748,1219.2888,1214.2471,1208.2338,1203.3372,1192.7474,1178.8932,1167.0376,1147.1344
1750.3862,1751.5007,1751.8035,1752.6532,1753.1649,1753.0087,1753.4828,1754.2168,1754.6287,1755.5308,1756.1633,1755.4681,1754.5576,1754.2876,1754.1531,1754.3141,1754.5739,1755.0419,1755.5162,1755.8981,1756.4529,1756.9847,1757.7845,1758.2026,1757.9735,1757.3856,1756.9272,1757.1283,1757.3455,1757.3071,1757.2212,1756.7323,1755.9595,1755.2303,1754.7316,1754.16,1753.8141,1753.8065,1753.5221,1753.0294,1752.5754,1751.9028,1751.4219,1751.3716,1751.249,1751.0161,1750.6448,1750.1992,1749.8884,1749.6779,1749.661,1749.7672,1749.6654,1749.358,1748.9249,1748.4747,1748.2362,1748.647,1748.8802,1748.2107,1747.1876,1746.1732,1744.8158,1743.1615,1741.9714,1740.5961,1739.2625,1738.1022,1736.9773,1736.1923,1735.0188,1733.9347,1733.5303,1733.8134,1734.6484,1735.3251,1736.0156,1736.4133,1736.6001,1736.9565,1737.4546,1738.5154,1739.8137,1740.7644,1741.1368,1741.0457,1741.3016,1741.8732,1742.5638,1743.8649,1745.5103,1746.7115,1748.1487,1749.0537,1749.3998,1749.1768,1748.5782,1748.0663,1747.1818,1746.1924,1745.1115,1744.0804,1743.004,1741.8997,1741.2465,1740.5775,1739.8992,1739.406,1738.5331,1737.7666,1737.4282,1737.2617,1737.3445,1737.4529,1737.9778,1738.6758,1738.9979,1739.2856,1740.2189,1739.5695,1735.6986,1726.4583,1717.4961,1714.1062,1706.0472,1698.7701,1695.9292,1696.381,1699.2695,1700.6018,1701.9272,1702.8915,1704.13,1705.7373,1707.1777,1709.7998,1713.5303,1717.9913,1725.5923,1732.8239,1740.1748,1749.271,1758.1295,1763.9954,1765.7062,1767.613,1769.5078,1770.5713,1771.1638,1771.236,1771.0917,1771.2225,1771.6487,1772.18,1772.8093,1773.2904,1773.9806,1774.6355,1774.9523,1775.2559,1775.4392,1775.5708,1775.6495,1775.6637,1775.725,1775.8151,1775.8853,1775.8911,1775.861,1775.8682,1775.818,1775.7133,1775.5555,1775.4095,1775.3593,1775.3436,1775.4213,1775.5463,1775.6865,1775.7966,1775.9211,1776.0455,1776.1017,1776.0334,1775.8905,1775.8085,1775.5906,1775.2468,1774.8248,1774.2308,1773.7404,1773.2133,1772.5612,1771.9656,1771.1113,1770.2235,1769.4415,1768.2576,1767.1705,1766.0109,1764.788,1763.9017,1762.8289,1761.9248,1761.2478,1760.4285,1759.8071,1759.2528,1758.6053,1758.0375,1757.044,1756.0067,1755.2755,1754.6204,1754.3286,1754.0844,1754.0919,1754.2957,1754.3811,1754.3259,1754.3135,1753.5293,1752.2471,1751.186,1749.0577,1746.5577,1741.7456,1735.694,1731.1204,1726.4626,1718.0183,1700.1901,1670.0549,1642.5248,1607.7853,1574.2615,1553.2687,1527.813,1507.9087,1490.8524,1479.084,1476.8552,1472.8196,1469.7059,1468.1895,1465.1276,1463.8181,1466.9335,1470.1732,1468.1903,1453.8403,1420.0339,1383.744,1333.0573,1293.2417,1275.5051,1269.5294,1273.8304,1271.4679,1267.0588,1263.6859,1264.9479,1267.7457,1267.6167,1264.3531,1260.0454,1257.4185,1255.6831,1255.129,1257.758,1261.2206,1262.4376,1262.3727,1260.855,1258.942,1255.7365,1252.7333,1248.6698,1244.1234,1240.5178,1235.554,1231.3866,1228.0707,1225.3372,1224.1934,1223.3219,1223.4106,1223.9166,1226.109,1229.0664,1231.2194,1234.6039,1237.9103,1242.0092,1246.0587,1248.7161,1249.6838,1248.8179,1248.2716,1247.1796,1245.7407,1243.1898,1238.451,1233.6853,1224.1705,1211.9197,1201.2048,1184.2515
1750.1389,1751.2404,1751.5195,1752.3627,1752.8251,1752.5872,1752.9579,1753.6013,1753.9624,1754.7899,1755.3457,1754.5496,1753.54,1753.2188,1752.9968,1753.0732,1753.2748,1753.7312,1754.2384,1754.6445,1755.2014,1755.713,1756.5002,1756.941,1756.7676,1756.2328,1755.8086,1756.0487,1756.3027,1756.2797,1756.178,1755.65,1754.8418,1754.1199,1753.647,1753.0616,1752.6914,1752.667,1752.376,1751.8676,1751.3848,1750.6995,1750.2186,1750.1581,1750.0289,1749.804,1749.48,1749.0839,1748.788,1748.5814,1748.5681,1748.6942,1748.6285,1748.3552,1747.952,1747.5388,1747.3337,1747.772,1748.03,1747.3927,1746.4025,1745.4097,1744.0774,1742.465,1741.3184,1739.9832,1738.6995,1737.6088,1736.5151,1735.7246,1734.5758,1733.5448,1733.1978,1733.6034,1734.5543,1735.2701,1736.0262,1736.4647,1736.6426,1736.9277,1737.3286,1738.2202,1739.3269,1740.152,1740.4264,1740.2277,1740.2842,1740.4608,1740.7815,1741.8403,1743.4993,1744.9161,1746.2649,1746.9,1747.1077,1746.7228,1746.0209,1745.508,1744.6747,1743.7166,1742.5814,1741.4302,1740.2495,1739.008,1738.2274,1737.355,1736.4691,1735.8689,1734.8746,1734.1001,1733.9277,1733.6763,1733.483,1733.4053,1733.8837,1734.6691,1735.0725,1734.3811,1733.3579,1729.526,1721.6853,1705.8127,1691.2549,1686.5963,1678.4589,1672.7887,1671.6349,1673.9055,1677.9773,1680.1606,1682.3123,1683.8517,1685.9125,1688.2885,1690.1898,1693.1515,1696.7173,1700.638,1706.6692,1712.527,1721.0912,1733.4285,1745.2347,1754.4088,1758.3259,1761.2566,1764.2734,1766.248,1767.7173,1768.6163,1769.0592,1769.7384,1770.4242,1771.0219,1771.6666,1772.1478,1772.9045,1773.6421,1774.0043,1774.3629,1774.6213,1774.8578,1775.0057,1775.0349,1775.1487,1775.2981,1775.4028,1775.4529,1775.4559,1775.4795,1775.4309,1775.3138,1775.1483,1774.9801,1774.902,1774.8527,1774.9001,1775.0074,1775.1273,1775.2203,1775.3263,1775.4288,1775.4694,1775.3915,1775.2362,1775.1357,1774.9048,1774.5596,1774.14,1773.5532,1773.0706,1772.5525,1771.9153,1771.3357,1770.4965,1769.616,1768.8341,1767.6635,1766.594,1765.4338,1764.2064,1763.322,1762.2516,1761.3485,1760.665,1759.859,1759.2651,1758.7401,1758.1177,1757.5598,1756.587,1755.5114,1754.6621,1753.8518,1753.4658,1753.2096,1753.2584,1753.5055,1753.6011,1753.4832,1753.3533,1752.4464,1751.1663,1750.4725,1748.2246,1745.0149,1739.3706,1731.1259,1723.8514,1712.0764,1693.6803,1663.6278,1621.5137,1588.2241,1545.4773,1511.5266,1498.594,1486.2639,1479.109,1472.043,1466.8945,1465.6722,1464.4105,1464.0819,1464.4045,1462.814,1461.1935,1461.9941,1463.6958,1462.8263,1453.3253,1428.1481,1399.7615,1351.751,1307.8373,1283.8066,1271.9879,1274.5717,1273.5731,1270.7261,1266.8353,1269.0035,1273.4752,1274.5752,1273.0812,1269.9941,1267.3091,1265.6152,1265.6711,1268.1774,1271.1022,1271.999,1271.6172,1269.7927,1267.2108,1263.4655,1260.4099,1256.7206,1252.6431,1249.1423,1244.2286,1240.1013,1236.9009,1234.547,1233.8959,1233.711,1234.8718,1236.4308,1240.5011,1245.7094,1250.031,1256.9692,1263.6371,1271.3651,1278.5212,1282.7507,1286.7498,1289.254,1291.3988,1294.2203,1296.1136,1296.3378,1293.6841,1289.9751,1282.9768,1274.0201,1266.0133,1254.1251
1750.0271,1751.1313,1751.3826,1752.1973,1752.5945,1752.279,1752.5581,1753.1353,1753.4762,1754.2535,1754.7448,1753.8751,1752.7914,1752.428,1752.1414,1752.1521,1752.2996,1752.7412,1753.2776,1753.7169,1754.2826,1754.7716,1755.5493,1756.0155,1755.8975,1755.4065,1755.0016,1755.2664,1755.5406,1755.5227,1755.4066,1754.8428,1753.9978,1753.248,1752.7698,1752.1918,1751.827,1751.8018,1751.5211,1751.0199,1750.532,1749.8534,1749.384,1749.3258,1749.2072,1749.0035,1748.735,1748.3945,1748.1185,1747.9321,1747.9398,1748.0922,1748.076,1747.8507,1747.4854,1747.112,1746.9395,1747.4115,1747.7024,1747.1001,1746.1443,1745.1703,1743.8486,1742.2693,1741.169,1739.8613,1738.5957,1737.537,1736.4064,1735.553,1734.4006,1733.4475,1733.2133,1733.7625,1734.8367,1735.6168,1736.387,1736.7848,1736.9442,1737.1271,1737.37,1737.9348,1738.7598,1739.5359,1739.7301,1739.3519,1739.1381,1738.5492,1738.0166,1738.3475,1739.9907,1742.1189,1743.4136,1743.589,1743.736,1743.5216,1743.1787,1743.3868,1743.4315,1743.0425,1742.3756,1741.3304,1740.0485,1738.5159,1737.3942,1736.0803,1734.813,1734.0762,1733.1235,1732.4608,1732.3644,1731.433,1730.3342,1730.0735,1730.8182,1731.979,1733.3885,1731.1218,1725.0575,1715.6519,1703.8289,1683.2747,1665.1354,1659.7205,1652.5188,1648.7157,1648.5122,1650.8568,1654.5055,1657.023,1660.1627,1662.7999,1666.3055,1669.9302,1672.4042,1675.6783,1679.1857,1682.8856,1689.3214,1696.1542,1706.3265,1719.8966,1731.5541,1744.7263,1753.1484,1756.3778,1759.8164,1762.6718,1764.9055,1766.5363,1767.502,1768.7094,1769.7355,1770.563,1771.3729,1771.8727,1772.552,1773.1443,1773.4012,1773.64,1773.822,1774.0433,1774.138,1774.122,1774.2823,1774.506,1774.6514,1774.7847,1774.869,1774.9344,1774.9156,1774.8062,1774.6523,1774.4768,1774.3759,1774.3066,1774.3403,1774.4423,1774.5564,1774.6433,1774.7384,1774.8285,1774.8627,1774.786,1774.6328,1774.5276,1774.2999,1773.9629,1773.5499,1772.9691,1772.4897,1771.9736,1771.3396,1770.765,1769.9257,1769.0383,1768.245,1767.0663,1765.9939,1764.8132,1763.5605,1762.662,1761.5759,1760.6627,1759.9702,1759.1783,1758.6177,1758.1309,1757.5507,1757.02,1756.0623,1754.97,1754.0986,1753.1544,1752.6106,1752.291,1752.3156,1752.5557,1752.6576,1752.503,1752.2435,1751.4099,1750.3541,1749.9542,1747.5176,1743.6346,1736.9886,1726.6364,1717.8436,1693.7965,1658.5403,1613.2815,1566.036,1540.1177,1507.0287,1482.6558,1474.0441,1467.1674,1464.8386,1462.9966,1461.5602,1460.8477,1460.1583,1460.2683,1461.1244,1460.9199,1459.888,1458.8254,1459.6249,1460.0702,1453.8418,1434.8844,1412.7357,1368.8041,1323.1716,1292.6215,1275.2095,1276.7122,1276.9283,1275.3081,1270.8107,1272.659,1277.4357,1279.2518,1279.815,1278.9609,1277.7963,1276.9116,1276.942,1278.1807,1279.6536,1280.2395,1279.7708,1278.0269,1275.3025,1271.6227,1268.8716,1265.6173,1262.1165,1259.1978,1254.4851,1250.034,1246.3568,1243.2645,1242.1351,1242.4921,1245.3075,1248.5238,1255.3185,1263.9855,1272.132,1285.5531,1298.3118,1312.3488,1323.8623,1329.2012,1335.3774,1340.0476,1343.7306,1348.5005,1351.9929,1353.844,1353.1006,1351.0018,1346.9257,1341.5994,1336.8351,1329.9458
1749.7515,1750.8798,1751.1545,1751.9885,1752.3667,1752.0028,1752.2128,1752.7324,1753.0559,1753.7921,1754.2267,1753.2808,1752.1158,1751.7053,1751.351,1751.2988,1751.4006,1751.8246,1752.3733,1752.8177,1753.3732,1753.8403,1754.5946,1755.0579,1754.9634,1754.4875,1754.0817,1754.3427,1754.6019,1754.5634,1754.4049,1753.7943,1752.9225,1752.1415,1751.6433,1751.058,1750.6812,1750.6425,1750.354,1749.8402,1749.3344,1748.6454,1748.1759,1748.1138,1748.0142,1747.8475,1747.6334,1747.3507,1747.1072,1746.9489,1746.9795,1747.1593,1747.1913,1747.0126,1746.6898,1746.3623,1746.2244,1746.734,1747.0643,1746.5059,1745.5947,1744.6477,1743.351,1741.8098,1740.7485,1739.4779,1738.2457,1737.2262,1736.0795,1735.1847,1734.0281,1733.1887,1733.128,1733.8092,1734.9637,1735.7953,1736.5383,1736.8523,1736.9664,1737.0763,1737.2224,1737.4703,1737.9133,1738.4688,1738.4553,1737.8802,1737.4045,1736.2402,1735.1101,1734.8674,1736.4673,1739.1351,1740.4381,1740.3538,1740.5326,1740.5978,1740.6898,1741.6437,1742.5859,1742.802,1742.7148,1741.9812,1740.8864,1739.2148,1737.7119,1736.0004,1734.4133,1733.5817,1732.7168,1732.1521,1732.0433,1730.3285,1728.2924,1727.9607,1729.0679,1730.5804,1732.5514,1728.4875,1717.9513,1702.4534,1686.2288,1663.403,1644.1433,1638.6051,1632.8853,1630.8213,1631.0459,1632.6176,1635.0656,1637.3806,1640.944,1644.2675,1648.6842,1653.1361,1656.0164,1659.4348,1662.8033,1666.2877,1673.1309,1680.7537,1691.1627,1704.4805,1715.506,1731.83,1744.6697,1749.668,1754.5023,1758.0957,1761.2526,1763.7891,1765.374,1767.255,1768.7773,1769.9808,1771.1118,1771.7183,1772.3687,1772.8365,1772.9976,1773.1266,1773.231,1773.4232,1773.4615,1773.3933,1773.5397,1773.7517,1773.8792,1774.0133,1774.1074,1774.1742,1774.148,1774.0276,1773.8693,1773.6948,1773.5984,1773.5336,1773.5754,1773.6885,1773.8158,1773.9103,1774.0048,1774.0928,1774.1271,1774.0577,1773.9097,1773.8007,1773.5786,1773.2538,1772.8507,1772.2809,1771.8087,1771.3002,1770.676,1770.1125,1769.2832,1768.3995,1767.6038,1766.4285,1765.3615,1764.169,1762.898,1761.9889,1760.892,1759.975,1759.2812,1758.5148,1757.9956,1757.5559,1757.0292,1756.5358,1755.5996,1754.51,1753.6635,1752.594,1751.8641,1751.4789,1751.4758,1751.7002,1751.7871,1751.5728,1751.1539,1750.5157,1749.7861,1749.4612,1746.498,1741.7191,1734.3354,1720.4712,1706.4912,1666.9357,1615.6709,1561.8148,1517.1398,1502.5063,1484.6412,1472.5349,1466.7917,1462.241,1461.1307,1461.486,1461.5037,1460.6901,1459.4332,1458.9595,1459.7826,1460.6578,1460.4763,1458.4291,1458.083,1458.4152,1453.5391,1439.1447,1422.626,1385.6637,1341.987,1305.6951,1282.301,1281.6713,1282.2189,1281.6244,1277.1031,1278.5989,1283.3708,1285.92,1288.0657,1288.8385,1289.2177,1289.0565,1288.6919,1288.5007,1288.5515,1288.8794,1288.4556,1287.0092,1284.5168,1281.3331,1279.14,1276.5557,1273.8423,1271.6681,1267.5908,1263.5874,1260.6533,1258.3711,1257.7775,1259.2101,1263.7379,1268.593,1277.8331,1289.4822,1301.099,1319.9996,1337.5696,1356.1663,1370.3075,1375.8245,1382.6925,1388.0598,1392.1293,1397.3914,1401.417,1404.1819,1405.1122,1404.725,1403.4603,1401.5162,1399.8564,1397.3721
1749.4169,1750.5643,1750.9308,1751.8673,1752.2959,1751.9016,1752.0403,1752.4656,1752.7195,1753.3716,1753.7268,1752.6511,1751.3528,1750.8739,1750.4163,1750.283,1750.3535,1750.7592,1751.2935,1751.6837,1752.1808,1752.6188,1753.3119,1753.71,1753.5758,1753.068,1752.6393,1752.8604,1753.0591,1752.9668,1752.7203,1752.0422,1751.1604,1750.3801,1749.8741,1749.2457,1748.8026,1748.7089,1748.3574,1747.7693,1747.1985,1746.4479,1745.9429,1745.8472,1745.7623,1745.6501,1745.4844,1745.2617,1745.0715,1744.9418,1744.9833,1745.187,1745.257,1745.1171,1744.8442,1744.5842,1744.5034,1745.0763,1745.4751,1744.9905,1744.1636,1743.2745,1742.0355,1740.5376,1739.4917,1738.2778,1737.1306,1736.193,1735.1093,1734.2322,1733.053,1732.3312,1732.486,1733.2528,1734.4056,1735.2451,1735.9382,1736.1606,1736.1626,1736.241,1736.4355,1736.601,1736.6,1736.4734,1735.9419,1735.1764,1734.491,1733.4357,1732.6456,1732.6041,1734.1761,1736.6162,1738.0597,1738.3282,1738.6948,1738.9713,1739.2108,1740.2616,1741.3229,1741.6725,1741.8601,1741.6125,1741.2719,1739.8792,1738.0698,1736.2164,1734.5426,1733.699,1732.8342,1732.2261,1732.0402,1729.893,1727.4314,1727.273,1728.708,1730.3213,1730.992,1725.1699,1714.325,1694.0793,1672.5803,1650.0597,1632.2837,1627.2502,1622.6888,1621.4498,1621.6338,1622.459,1623.8646,1625.4985,1628.2892,1631.0258,1634.7681,1638.8531,1641.8055,1645.1783,1648.2987,1651.4877,1657.2703,1663.4929,1671.4319,1684.2874,1697.7787,1715.6934,1730.7216,1741.0962,1749.2391,1752.3591,1756.191,1759.6655,1761.9952,1764.705,1766.8774,1768.5667,1770.2294,1771.1704,1772.053,1772.6437,1772.8405,1773.0175,1773.1605,1773.3894,1773.4615,1773.3728,1773.3848,1773.3986,1773.384,1773.3225,1773.2413,1773.204,1773.0677,1772.882,1772.6711,1772.5095,1772.4785,1772.4678,1772.5621,1772.721,1772.9039,1773.0376,1773.1573,1773.2618,1773.3013,1773.2408,1773.0908,1772.9667,1772.7379,1772.4186,1772.0234,1771.4669,1771.0068,1770.5126,1769.9105,1769.3698,1768.5669,1767.704,1766.9216,1765.775,1764.7368,1763.5536,1762.285,1761.3804,1760.2916,1759.388,1758.7056,1757.9784,1757.5094,1757.1228,1756.6527,1756.1975,1755.286,1754.1969,1753.3591,1752.1688,1751.2854,1750.8954,1750.9349,1751.1815,1751.253,1750.9229,1750.2554,1749.8616,1749.4958,1748.9573,1744.9386,1738.8687,1732.1809,1713.4985,1687.8943,1631.3129,1570.4786,1522.5272,1487.2888,1477.692,1467.44,1461.744,1458.5339,1456.2806,1456.31,1457.5939,1458.3279,1457.8276,1457.0103,1457.1702,1458.6487,1460.3425,1460.804,1459.4856,1458.0001,1456.4336,1451.8944,1441.6497,1430.801,1403.758,1365.1135,1323.1964,1292.668,1288.3689,1287.8545,1287.959,1284.2891,1286.1426,1291.181,1294.4141,1297.2189,1298.3429,1299.1913,1299.2642,1298.7771,1298.0288,1297.5536,1297.8528,1297.5443,1296.3453,1294.1616,1291.5582,1289.9537,1288.025,1286.1318,1284.6931,1282.1403,1280.6196,1281.6041,1284.3141,1287.037,1290.2267,1295.6368,1301.5776,1312.3672,1325.689,1339.3136,1360.0264,1378.1334,1395.9734,1408.6818,1413.3638,1419.3329,1424.1772,1427.9799,1433.3802,1437.9233,1441.5088,1443.8373,1444.783,1445.7179,1446.4185,1447.1709,1448.192
1749.0415,1750.2124,1750.7009,1751.7725,1752.3,1751.9203,1752.0369,1752.3989,1752.59,1753.1816,1753.4891,1752.3127,1750.9089,1750.3778,1749.8413,1749.6532,1749.7175,1750.1106,1750.6134,1750.9259,1751.3553,1751.7761,1752.409,1752.7235,1752.516,1751.9506,1751.4874,1751.6514,1751.7731,1751.6189,1751.282,1750.5475,1749.6744,1748.9116,1748.401,1747.7181,1747.1958,1747.041,1746.6143,1745.9398,1745.2992,1744.4769,1743.9259,1743.7928,1743.7172,1743.6501,1743.5052,1743.316,1743.1718,1743.0603,1743.1007,1743.3154,1743.3981,1743.2715,1743.0312,1742.821,1742.7815,1743.3994,1743.8484,1743.4207,1742.6606,1741.8214,1740.6417,1739.1747,1738.1191,1736.9531,1735.8922,1735.03,1734.0487,1733.2417,1732.054,1731.4247,1731.7493,1732.5299,1733.6128,1734.4246,1735.0627,1735.219,1735.1155,1735.2313,1735.5834,1735.8505,1735.5336,1734.7056,1733.6703,1732.8137,1732.066,1731.6035,1731.7147,1732.3512,1733.905,1735.6486,1737.2676,1738.1903,1738.7817,1739.151,1739.2953,1739.9661,1740.5726,1740.6898,1740.8517,1741.0385,1741.5591,1740.6477,1738.7333,1737.012,1735.4854,1734.7083,1733.8021,1733.0646,1732.7498,1730.5717,1728.2235,1728.3503,1729.9478,1731.42,1730.0496,1723.2902,1715.2323,1693.2131,1668.2576,1648.525,1634.1857,1630.0768,1626.1302,1624.6758,1624.316,1624.4235,1625.0713,1625.813,1627.1776,1628.5969,1630.7168,1633.6296,1636.3022,1639.4197,1642.2694,1645.2169,1649.437,1653.3796,1657.6786,1669.4054,1685.7582,1702.943,1717.5619,1733.6599,1745.3816,1747.7299,1752.035,1756.214,1759.081,1762.4194,1765.1123,1767.1913,1769.315,1770.5914,1771.7789,1772.6127,1772.9319,1773.2546,1773.5043,1773.7977,1773.9536,1773.8772,1773.7205,1773.4779,1773.2869,1772.9629,1772.6407,1772.464,1772.1886,1771.9254,1771.6486,1771.5009,1771.5491,1771.6029,1771.7561,1771.9634,1772.2052,1772.3812,1772.5319,1772.6592,1772.7068,1772.6548,1772.5001,1772.3596,1772.1205,1771.8018,1771.4115,1770.8661,1770.4181,1769.9396,1769.3615,1768.8444,1768.0721,1767.238,1766.4781,1765.3705,1764.3684,1763.2101,1761.9612,1761.0707,1760.0027,1759.121,1758.4572,1757.7646,1757.3318,1756.9808,1756.5475,1756.1172,1755.2233,1754.1395,1753.3146,1752.065,1751.1079,1750.7511,1750.8549,1751.133,1751.1785,1750.7382,1749.8859,1749.6943,1749.5594,1748.6127,1743.5555,1736.4587,1730.9299,1707.8877,1670.0807,1602.5721,1541.955,1509.442,1486.8296,1477.384,1468.3773,1463.2603,1460.5563,1458.2056,1457.3079,1457.0144,1456.7252,1456.4203,1456.0552,1456.9506,1458.993,1460.827,1461.6064,1462.1692,1459.9628,1455.5991,1449.8124,1440.8201,1432.6992,1413.9807,1381.6608,1337.6088,1302.5391,1294.6461,1292.2074,1292.3555,1289.9684,1292.4374,1297.633,1301.1985,1303.5555,1303.8016,1304.2666,1304.1704,1303.6665,1303.1346,1302.9481,1303.3464,1303.1658,1302.1586,1300.3416,1298.2994,1297.1709,1295.82,1294.6029,1293.6356,1292.6713,1294.0848,1299.5956,1308.1857,1314.8586,1319.7766,1325.2731,1331.4116,1342.2274,1355.2103,1368.6024,1387.1906,1402.0525,1415.168,1423.7112,1426.9109,1430.7545,1433.9202,1436.679,1441.3088,1445.657,1449.3027,1452.0667,1453.4869,1455.1083,1456.5929,1458.0858,1460.0907
1747.9178,1749.195,1749.8815,1751.1547,1751.8687,1751.5854,1751.7799,1752.1624,1752.3457,1752.9218,1753.2058,1751.9792,1750.5021,1749.9122,1749.2943,1749.0262,1749.0326,1749.3804,1749.8593,1750.1178,1750.5222,1750.9623,1751.5807,1751.8652,1751.6378,1751.0524,1750.5623,1750.6758,1750.7172,1750.4899,1750.0328,1749.2025,1748.3114,1747.5183,1746.9583,1746.1893,1745.5796,1745.3824,1744.9174,1744.1965,1743.5043,1742.6288,1742.054,1741.9247,1741.871,1741.827,1741.6904,1741.514,1741.3909,1741.2867,1741.3298,1741.5625,1741.6519,1741.5194,1741.2938,1741.0764,1741.0024,1741.5459,1741.913,1741.4377,1740.6077,1739.7319,1738.613,1737.214,1736.1702,1735.0472,1734.0651,1733.2761,1732.5004,1731.9492,1731.0,1730.6643,1731.2073,1732.0826,1733.1669,1733.9935,1734.6431,1734.8303,1734.7787,1735.154,1735.8057,1735.9056,1735.2737,1734.3546,1733.2849,1732.5131,1731.8566,1731.9155,1732.6926,1733.8069,1735.3109,1736.5333,1738.1296,1739.2957,1739.8491,1740.0394,1739.9348,1740.1471,1740.2787,1740.1626,1740.1228,1740.3616,1741.1757,1740.6028,1738.9222,1737.5834,1736.3654,1735.6594,1734.6855,1733.7347,1733.1678,1731.0099,1728.8705,1729.0057,1730.351,1731.4534,1729.2891,1722.4183,1715.8022,1692.4005,1665.0597,1646.5251,1633.8733,1630.2682,1626.8981,1625.5275,1624.791,1624.3115,1624.299,1624.3229,1624.5784,1624.9797,1625.8125,1627.5594,1629.5994,1631.9507,1634.0199,1636.1848,1638.5938,1640.4028,1641.8708,1650.5144,1664.7563,1678.7452,1692.7947,1712.69,1730.7675,1738.1895,1746.3533,1752.7603,1756.2358,1760.273,1763.3763,1765.7865,1767.9237,1768.9908,1770.2643,1771.396,1772.023,1772.6693,1773.1714,1773.6404,1773.9716,1773.9614,1773.7454,1773.3726,1773.0839,1772.5854,1772.093,1771.8264,1771.4535,1771.1229,1770.7854,1770.5784,1770.5875,1770.5819,1770.672,1770.8335,1771.0201,1771.1542,1771.2643,1771.3746,1771.4337,1771.3848,1771.2189,1771.0549,1770.8031,1770.4911,1770.1151,1769.5983,1769.1794,1768.7368,1768.2081,1767.737,1767.0289,1766.2554,1765.5413,1764.507,1763.572,1762.4683,1761.2621,1760.397,1759.3657,1758.5204,1757.886,1757.2351,1756.8392,1756.527,1756.1309,1755.7241,1754.8375,1753.7455,1752.9286,1751.5853,1750.5016,1750.1111,1750.2217,1750.5109,1750.4026,1749.8303,1749.0474,1748.8942,1748.5709,1747.0569,1741.213,1733.3324,1725.2498,1692.5375,1638.35,1565.5098,1513.6338,1493.7894,1481.3478,1473.3593,1466.4657,1462.4872,1460.355,1458.1067,1456.6747,1455.5063,1454.7216,1454.6846,1455.0316,1456.7844,1459.2622,1461.4238,1462.6978,1464.8901,1461.5907,1454.3174,1448.1227,1440.9407,1435.1321,1423.4393,1398.6018,1358.9758,1321.5461,1306.9048,1301.6179,1301.5587,1300.5333,1303.0388,1307.8085,1311.6761,1313.9674,1314.0985,1315.5769,1316.5178,1316.2614,1315.736,1314.9816,1314.4303,1313.7706,1313.0275,1311.5177,1310.3711,1310.3984,1312.074,1313.8052,1313.6892,1314.3882,1317.6847,1324.7972,1336.0522,1345.4255,1354.2417,1362.5004,1368.9916,1378.7677,1389.2196,1399.9182,1413.3369,1423.0474,1431.0885,1436.0999,1438.2181,1440.496,1442.4237,1444.3792,1448.2524,1452.2185,1455.7499,1458.7223,1460.4231,1462.5576,1464.7285,1466.9078,1469.7965
1748.8223,1750.1414,1750.9288,1752.3063,1753.141,1752.9463,1753.2463,1753.6194,1753.6573,1753.9791,1754.0613,1752.7838,1751.2794,1750.6384,1749.9467,1749.5818,1749.4861,1749.7473,1750.1925,1750.421,1750.8267,1751.2931,1751.9313,1752.2396,1752.0415,1751.4702,1750.9683,1751.0615,1751.0581,1750.7819,1750.2401,1749.3263,1748.396,1747.5388,1746.9082,1746.0604,1745.3925,1745.1892,1744.739,1744.0304,1743.3246,1742.4309,1741.8551,1741.7615,1741.7191,1741.6511,1741.4911,1741.2747,1741.1091,1740.9767,1741.0127,1741.2485,1741.3162,1741.143,1740.8807,1740.5712,1740.3807,1740.7336,1740.8849,1740.2379,1739.1777,1738.1556,1737.0493,1735.7004,1734.6608,1733.5107,1732.5049,1731.7035,1731.0967,1730.8489,1730.2671,1730.2792,1730.9738,1731.9819,1733.1497,1734.0332,1734.7892,1735.1365,1735.3177,1736.0779,1737.0215,1736.746,1735.9664,1735.6748,1735.0972,1734.5594,1734.132,1734.4069,1735.291,1736.4595,1737.921,1739.0665,1740.4669,1741.3563,1741.6367,1741.4666,1741.07,1740.9364,1740.757,1740.4854,1740.1013,1739.9205,1740.2689,1739.7279,1738.5505,1737.6825,1736.8036,1736.1488,1735.1194,1733.9794,1733.16,1731.132,1729.2686,1729.0873,1729.8373,1730.5275,1729.2598,1723.3666,1716.4811,1692.9579,1665.5396,1646.4065,1633.1589,1629.3828,1626.1566,1625.0024,1624.2288,1623.6449,1623.4861,1623.3534,1623.3967,1623.6113,1624.1534,1625.3373,1626.7174,1628.1882,1629.385,1630.6567,1632.0254,1633.0533,1634.1417,1639.3351,1647.3243,1657.199,1671.1298,1691.5314,1716.9722,1734.0828,1747.4441,1755.4506,1758.381,1761.5729,1763.8541,1766.1501,1767.5975,1767.802,1768.791,1770.1315,1771.1598,1772.2017,1773.0165,1773.7188,1774.2001,1774.2041,1774.018,1773.6552,1773.3588,1772.8223,1772.2869,1772.008,1771.6091,1771.2404,1770.8644,1770.5331,1770.3835,1770.2003,1770.1146,1770.143,1770.1696,1770.1837,1770.1888,1770.244,1770.3141,1770.2595,1770.0796,1769.8965,1769.637,1769.3362,1768.9783,1768.498,1768.1174,1767.7216,1767.2544,1766.8385,1766.2104,1765.5146,1764.8596,1763.9149,1763.0588,1762.0181,1760.8546,1760.0078,1759.0042,1758.1846,1757.5696,1756.9382,1756.5544,1756.2561,1755.872,1755.4703,1754.5742,1753.4651,1752.6489,1751.2424,1750.064,1749.5956,1749.6619,1749.9513,1749.692,1749.0447,1748.4747,1748.1196,1747.3071,1745.4147,1739.6606,1732.0092,1721.0352,1679.6309,1612.0803,1542.3462,1504.1917,1487.8324,1477.4601,1470.8651,1465.0416,1461.4631,1459.3943,1457.0771,1455.5322,1454.3892,1453.6935,1453.8026,1454.7155,1456.98,1459.5105,1461.8959,1463.5516,1466.5344,1462.4565,1453.5273,1447.743,1441.4839,1435.8202,1425.1816,1404.6259,1374.5289,1338.4894,1317.096,1309.5289,1309.2153,1308.975,1310.921,1314.8256,1318.6868,1321.207,1322.0475,1325.6608,1328.5226,1328.642,1327.8717,1325.8043,1323.4492,1321.7339,1321.1434,1319.6561,1319.2975,1320.6852,1326.9146,1332.9043,1333.572,1334.939,1337.6494,1341.8418,1350.6742,1360.2496,1373.8843,1386.8665,1393.7094,1401.7083,1408.3066,1414.7694,1421.9347,1426.6794,1431.5675,1435.4048,1437.4376,1439.5209,1441.274,1443.0735,1446.574,1450.1373,1453.3887,1456.1332,1457.6659,1459.6637,1461.7979,1464.0109,1466.8608
1742.3949,1744.068,1745.1774,1746.8386,1747.9835,1748.0364,1748.5859,1749.3341,1749.9137,1750.9937,1751.626,1750.6061,1749.2019,1748.5857,1747.962,1747.6396,1747.5248,1747.8104,1748.3231,1748.6301,1749.1556,1749.7273,1750.4695,1750.8754,1750.7648,1750.2614,1749.7751,1749.8663,1749.8424,1749.539,1748.9259,1747.9406,1746.9877,1746.0704,1745.3746,1744.4775,1743.7932,1743.6141,1743.2118,1742.5583,1741.8815,1741.0259,1740.498,1740.4773,1740.4818,1740.4125,1740.2595,1740.0653,1739.9318,1739.8314,1739.8971,1740.1677,1740.26,1740.0928,1739.8616,1739.539,1739.286,1739.5356,1739.5853,1738.8827,1737.7512,1736.6985,1735.6511,1734.4054,1733.4385,1732.3895,1731.5145,1730.8273,1730.4983,1730.5903,1730.3862,1730.7065,1731.4929,1732.5831,1733.7902,1734.7018,1735.4678,1735.8513,1736.1447,1737.202,1738.4346,1737.9005,1737.1158,1737.4961,1737.4729,1737.2002,1736.9923,1737.4027,1738.2921,1739.4343,1740.8153,1741.8958,1743.0029,1743.4691,1743.3772,1742.7544,1742.0336,1741.601,1741.1918,1740.8082,1740.1746,1739.6016,1739.3636,1738.7539,1738.0594,1737.6459,1737.0854,1736.4559,1735.3513,1734.0249,1732.983,1731.0502,1729.4138,1729.0067,1729.2012,1729.4106,1729.3033,1724.4219,1716.4618,1694.2251,1668.6846,1647.7638,1632.532,1628.4512,1625.2585,1624.3467,1623.5498,1622.9286,1622.729,1622.5671,1622.5294,1622.6259,1622.9714,1623.5969,1624.2135,1624.743,1625.052,1625.4004,1625.6791,1625.8816,1626.6106,1628.2397,1629.7655,1634.831,1646.505,1663.6875,1690.6649,1713.3445,1732.1069,1744.8707,1750.0586,1756.3334,1760.6216,1763.3585,1764.7458,1764.6722,1765.6565,1767.1559,1768.3741,1769.6206,1770.6084,1771.4181,1772.1404,1772.4149,1772.4719,1772.359,1772.229,1771.8512,1771.4263,1771.2253,1770.9016,1770.5673,1770.2161,1769.8263,1769.5638,1769.261,1769.0531,1768.9829,1768.8912,1768.8182,1768.753,1768.7695,1768.8424,1768.7854,1768.598,1768.4001,1768.1339,1767.8383,1767.4891,1767.0239,1766.6561,1766.2725,1765.8209,1765.4207,1764.815,1764.1387,1763.4948,1762.5696,1761.7373,1760.7361,1759.6235,1758.8148,1757.8608,1757.0854,1756.5052,1755.9069,1755.5409,1755.263,1754.8948,1754.4999,1753.5958,1752.4661,1751.6418,1750.1617,1748.8777,1748.3159,1748.2916,1748.5222,1747.934,1747.2101,1747.2085,1746.7498,1745.2162,1742.7839,1736.7267,1728.5343,1707.35,1654.0361,1580.4772,1520.0762,1497.461,1483.6611,1474.19,1468.9355,1463.7898,1460.2317,1458.0592,1455.6412,1454.124,1453.202,1452.7863,1453.1097,1454.5857,1457.2572,1459.7054,1462.382,1464.3014,1467.1665,1462.28,1452.5728,1447.6682,1442.3491,1436.4712,1427.0492,1411.2256,1390.6437,1357.5637,1331.4207,1321.6167,1320.3899,1320.5928,1321.8572,1325.0024,1329.003,1331.8125,1333.1127,1337.861,1341.8881,1342.4758,1341.8585,1339.3074,1336.091,1333.9695,1333.6146,1332.2893,1332.5013,1334.6979,1343.304,1351.5723,1352.8158,1355.1143,1357.9694,1360.5078,1366.958,1375.2423,1390.7606,1405.892,1412.5442,1418.6748,1421.8964,1424.5626,1426.4563,1427.245,1429.7379,1432.7866,1434.7854,1436.7762,1438.4076,1440.0436,1443.0403,1446.0074,1448.755,1451.0172,1452.1982,1453.8491,1455.7523,1457.8176,1460.3838
1727.7822,1730.234,1732.0077,1734.233,1735.9319,1736.3883,1737.285,1738.9414,1741.1653,1744.6715,1747.0885,1746.7285,1745.5443,1745.0746,1744.6991,1744.6067,1744.63,1745.089,1745.747,1746.1936,1746.8918,1747.5997,1748.4723,1748.9342,1748.805,1748.2739,1747.7677,1747.8612,1747.83,1747.4999,1746.7815,1745.6932,1744.7203,1743.7458,1742.9949,1742.0869,1741.3658,1741.1317,1740.6676,1739.948,1739.2206,1738.3444,1737.8319,1737.8326,1737.841,1737.7568,1737.5903,1737.4446,1737.411,1737.4037,1737.544,1737.8815,1738.0613,1737.9777,1737.8812,1737.693,1737.5065,1737.8575,1738.0518,1737.5186,1736.6183,1735.7389,1734.784,1733.6556,1732.8241,1732.0673,1731.5591,1731.1586,1731.1624,1731.4824,1731.4575,1731.8865,1732.6836,1733.7454,1734.8859,1735.7604,1736.3489,1736.5177,1736.6434,1737.7288,1739.1504,1738.6459,1737.9243,1738.4814,1738.68,1738.5719,1738.4495,1738.9558,1739.914,1741.074,1742.338,1743.2314,1744.0623,1744.2224,1743.8232,1742.8635,1741.9463,1741.3969,1740.9518,1740.5677,1740.0078,1739.4282,1738.9493,1738.2267,1737.639,1737.4279,1737.0194,1736.375,1735.2056,1733.786,1732.6917,1730.6594,1728.9647,1728.7172,1728.8372,1728.7051,1729.2833,1724.4927,1714.443,1694.4431,1672.5364,1649.3667,1631.7078,1627.6511,1624.6547,1624.0082,1623.1189,1622.4132,1622.1663,1622.0029,1621.7943,1621.5968,1621.5433,1621.5608,1621.5485,1621.4604,1621.2548,1621.0431,1620.227,1619.2438,1618.7197,1618.1298,1617.1031,1618.7595,1625.9995,1637.2708,1656.461,1675.1427,1699.1807,1722.5886,1735.4651,1751.9979,1762.5502,1764.8524,1765.6746,1765.6686,1765.9052,1765.9141,1765.7504,1766.1084,1766.767,1767.1974,1768.0691,1768.9102,1769.3861,1769.7609,1770.0099,1769.9506,1769.7014,1769.5922,1769.3695,1769.1053,1768.815,1768.4745,1768.2356,1767.9696,1767.7936,1767.74,1767.6687,1767.6146,1767.5758,1767.5961,1767.6488,1767.5875,1767.3966,1767.1884,1766.9115,1766.6036,1766.2384,1765.7362,1765.3248,1764.8788,1764.3427,1763.8696,1763.1552,1762.3658,1761.6229,1760.5562,1759.6184,1758.5848,1757.5149,1756.7708,1755.8888,1755.1764,1754.6471,1754.1038,1753.7747,1753.5352,1753.2048,1752.8353,1751.9469,1750.7972,1749.9379,1748.334,1746.8936,1746.1992,1746.0062,1746.0831,1744.879,1744.0624,1745.0862,1745.208,1743.424,1740.3633,1734.6345,1726.8617,1690.0969,1623.2927,1552.7361,1501.7264,1488.7976,1478.4362,1470.9924,1466.768,1462.1888,1458.6321,1456.4083,1454.0403,1452.6848,1451.9579,1451.8816,1452.5444,1454.5498,1457.5636,1459.942,1462.9564,1464.9523,1466.9193,1461.2324,1451.5051,1447.4915,1443.2977,1437.7852,1432.095,1421.1499,1403.8008,1372.1737,1345.1333,1334.0612,1331.8544,1332.1322,1332.8911,1335.8981,1340.8131,1344.0895,1344.9545,1348.4689,1351.6746,1352.5515,1352.5658,1351.1553,1349.2015,1348.0918,1348.0841,1347.1947,1347.4031,1349.0581,1354.9478,1360.8557,1362.0786,1365.9781,1371.5353,1377.4764,1385.0826,1391.3763,1403.3153,1415.1624,1420.9916,1426.2941,1428.8635,1430.6589,1431.4623,1431.4441,1433.0095,1435.2953,1436.9353,1438.4445,1439.6238,1440.8809,1443.2202,1445.5526,1447.7354,1449.5271,1450.4319,1451.9293,1453.8464,1455.938,1458.522
1711.3478,1714.5127,1716.8282,1719.5067,1721.6688,1722.4896,1723.7043,1726.2045,1729.9492,1735.7036,1739.7865,1740.0823,1739.1459,1738.8263,1738.7368,1738.9293,1739.1272,1739.8232,1740.6951,1741.3584,1742.3,1743.1771,1744.2185,1744.8198,1744.797,1744.3651,1743.9071,1744.0245,1744.0206,1743.7156,1742.99,1741.9015,1740.962,1739.9935,1739.2445,1738.3813,1737.7227,1737.5339,1737.1162,1736.4615,1735.8014,1735.0234,1734.6041,1734.6764,1734.7644,1734.7412,1734.6464,1734.6466,1734.7896,1734.921,1735.1437,1735.556,1735.8434,1735.8684,1735.9329,1735.9315,1735.8704,1736.4182,1736.8693,1736.6019,1736.0615,1735.4454,1734.6124,1733.6154,1732.9371,1732.4819,1732.3452,1732.2516,1732.5391,1732.9789,1733.0001,1733.3971,1734.1292,1735.0983,1736.1305,1736.94,1737.3036,1737.1831,1737.0236,1737.9473,1739.4231,1739.1652,1738.6387,1739.1263,1739.3442,1739.2863,1739.1278,1739.609,1740.5723,1741.7218,1742.8906,1743.6328,1744.2808,1744.2646,1743.6875,1742.5342,1741.5175,1740.975,1740.6029,1740.2677,1739.9156,1739.5056,1738.9766,1738.1586,1737.5104,1737.3118,1736.906,1736.2197,1734.9943,1733.5361,1732.4572,1730.3081,1728.5055,1728.517,1728.7504,1728.4149,1729.0996,1724.0869,1712.7462,1695.069,1676.3297,1651.0732,1631.1313,1627.0153,1624.0282,1623.4906,1622.5115,1621.7273,1621.4487,1621.3075,1620.9989,1620.6024,1620.3231,1620.0208,1619.672,1619.3231,1618.9384,1618.5132,1617.0685,1615.3003,1613.7736,1612.3878,1611.2811,1611.0734,1613.636,1618.3407,1626.1084,1636.0856,1661.2335,1692.2128,1711.5984,1737.1798,1754.2021,1757.7872,1760.036,1761.3375,1762.2052,1762.1075,1761.474,1761.4368,1761.8229,1761.9937,1763.0947,1764.5132,1765.4197,1766.2605,1766.85,1767.1534,1767.1737,1767.2235,1767.1823,1767.0526,1766.881,1766.68,1766.5536,1766.4227,1766.3704,1766.3994,1766.427,1766.45,1766.4897,1766.5481,1766.5856,1766.5331,1766.3539,1766.149,1765.8707,1765.5507,1765.1677,1764.6228,1764.1606,1763.6447,1763.016,1762.4651,1761.6346,1760.7273,1759.8859,1758.6771,1757.6306,1756.554,1755.5103,1754.8167,1753.9915,1753.3291,1752.8408,1752.3401,1752.0372,1751.8257,1751.5197,1751.1635,1750.2848,1749.127,1748.2499,1746.5911,1745.0858,1744.3549,1744.0706,1744.0228,1742.3942,1741.5321,1743.316,1743.7283,1741.4912,1737.934,1731.0785,1721.3643,1668.36,1592.2627,1533.3486,1492.4957,1483.8032,1475.4904,1469.1719,1465.4244,1461.0094,1457.3467,1455.102,1452.8595,1451.7295,1451.2,1451.4132,1452.3151,1454.5057,1457.5492,1459.8154,1463.1053,1464.9932,1465.4656,1459.386,1450.7092,1447.5422,1444.1204,1438.9362,1436.4182,1428.6296,1410.9462,1381.2423,1357.03,1345.3846,1341.782,1341.7114,1342.3148,1345.5541,1350.9532,1354.3619,1354.5613,1355.9506,1357.5864,1358.681,1359.5588,1359.921,1359.9678,1360.2773,1360.532,1360.065,1360.0153,1360.6838,1362.1995,1364.191,1365.1709,1370.2075,1378.25,1388.1897,1397.4666,1401.5895,1407.8405,1414.3645,1419.1516,1424.2738,1427.7151,1430.3254,1432.5846,1433.8174,1435.763,1437.7964,1439.1465,1440.3285,1441.2021,1442.1824,1444.0491,1445.9277,1447.6776,1449.1068,1449.8142,1451.187,1453.0865,1455.163,1457.7395
1696.2499,1699.5974,1701.8708,1704.5156,1706.7637,1707.7808,1709.2429,1711.9027,1715.6522,1721.3517,1725.4263,1725.9801,1725.2405,1724.8868,1724.9363,1725.3013,1725.5339,1726.4623,1727.6998,1728.7859,1730.1902,1731.3546,1732.6875,1733.7815,1734.4512,1734.6785,1734.5122,1734.6606,1734.6898,1734.5015,1734.0222,1733.2145,1732.444,1731.625,1730.9866,1730.2286,1729.9231,1730.1957,1730.3179,1730.3135,1730.1991,1729.9657,1729.9276,1730.3173,1730.7812,1731.0469,1731.2579,1731.6549,1732.1761,1732.5386,1732.8286,1733.3262,1733.7146,1733.8256,1734.0122,1734.1545,1734.1947,1734.9012,1735.5712,1735.542,1735.3209,1734.9602,1734.3462,1733.5758,1733.0635,1732.7609,1732.8032,1732.9385,1733.487,1734.0967,1734.2516,1734.685,1735.3572,1736.2563,1737.2113,1737.9766,1738.2166,1737.9213,1737.5276,1738.2786,1739.7711,1739.8983,1739.7582,1740.2761,1740.5243,1740.4312,1740.141,1740.5111,1741.456,1742.6066,1743.7332,1744.3732,1744.9728,1744.9418,1744.3269,1743.0199,1741.8169,1741.1467,1740.6776,1740.2756,1739.9698,1739.6487,1739.0992,1738.3844,1737.9011,1737.7772,1737.3784,1736.6617,1735.3451,1733.7487,1732.4974,1730.4548,1728.9052,1728.9221,1728.9459,1728.3342,1728.1503,1723.4507,1714.5682,1697.9454,1678.2328,1651.4883,1630.1874,1625.708,1622.3326,1621.5607,1620.4454,1619.4036,1618.8601,1618.4974,1618.0078,1617.5476,1617.3009,1616.97,1616.4576,1615.8401,1615.1464,1614.4026,1612.5884,1610.5374,1608.6439,1606.4373,1604.3787,1602.0536,1600.7959,1600.4478,1600.4254,1603.5254,1620.9391,1645.664,1662.4788,1686.3331,1706.8618,1719.5231,1730.9059,1737.0808,1744.2805,1750.8875,1754.7692,1756.7695,1757.0411,1757.8658,1759.1937,1760.331,1760.9961,1761.6158,1762.133,1762.6744,1763.1357,1763.5157,1763.8601,1764.0118,1764.0878,1764.1349,1764.1696,1764.197,1764.2611,1764.3646,1764.4779,1764.5685,1764.6788,1764.8019,1764.8718,1764.8666,1764.7278,1764.5431,1764.2798,1763.9657,1763.5912,1763.0544,1762.5973,1762.0841,1761.4707,1760.9457,1760.1504,1759.2833,1758.4834,1757.341,1756.3484,1755.2963,1754.2474,1753.5366,1752.7019,1752.0397,1751.5566,1751.0514,1750.7373,1750.5237,1750.201,1749.8157,1748.9045,1747.7701,1746.9727,1745.4795,1744.1752,1743.7289,1743.713,1743.7838,1742.5507,1741.7894,1743.2458,1742.1422,1738.1111,1735.1835,1723.2067,1703.7521,1632.1217,1550.317,1508.9733,1481.7474,1477.2913,1471.3605,1466.328,1463.1334,1459.2261,1455.9019,1453.951,1451.9974,1451.0348,1450.6053,1450.9902,1452.0328,1454.0533,1456.8561,1459.0479,1462.7349,1464.4938,1462.9525,1456.6847,1449.834,1447.6052,1444.91,1440.2037,1439.6537,1434.6018,1418.7305,1394.2533,1374.8185,1361.1848,1354.3253,1353.8115,1355.0233,1358.5565,1362.3253,1364.7546,1364.8909,1365.1625,1366.2743,1367.9666,1369.9358,1371.564,1372.4789,1373.3074,1373.6062,1373.3478,1373.5984,1374.4679,1375.1798,1376.499,1377.9413,1382.9672,1390.4874,1399.9515,1408.1761,1410.9927,1414.2367,1417.9875,1421.9796,1426.523,1429.818,1432.2386,1434.4731,1435.7806,1437.3849,1439.0231,1440.2513,1441.442,1442.3792,1443.3121,1444.9893,1446.6453,1448.2211,1449.534,1450.2021,1451.4398,1453.2,1455.2242,1457.7166
1689.5991,1692.5609,1694.2762,1696.4529,1698.3904,1699.3466,1700.8624,1702.9951,1705.4081,1709.0463,1711.642,1711.9901,1711.311,1710.7666,1710.7504,1711.1017,1711.2283,1712.2789,1713.8525,1715.3595,1717.2098,1718.6239,1720.2139,1721.8818,1723.4468,1724.5247,1724.7242,1724.8824,1724.9198,1724.8685,1724.7493,1724.3469,1723.7859,1723.1757,1722.6964,1722.0532,1722.1992,1723.0892,1723.9366,1724.801,1725.4102,1725.8652,1726.2786,1727.0455,1727.9573,1728.5637,1729.1149,1729.9294,1730.8428,1731.4159,1731.728,1732.2788,1732.7155,1732.8523,1733.0657,1733.248,1733.3303,1734.106,1734.88,1734.9685,1734.9028,1734.683,1734.2639,1733.6877,1733.2705,1732.9144,1732.877,1733.0592,1733.6968,1734.3971,1734.65,1735.1189,1735.7468,1736.6158,1737.5515,1738.308,1738.5653,1738.2646,1737.7673,1738.3741,1739.8102,1740.3137,1740.5676,1741.1123,1741.3254,1741.1079,1740.6292,1740.8328,1741.7325,1742.8823,1744.039,1744.6842,1745.4064,1745.5457,1745.0714,1743.7677,1742.4294,1741.6185,1740.9872,1740.467,1740.0831,1739.7866,1739.3107,1738.8158,1738.5483,1738.457,1738.0258,1737.3002,1735.9172,1734.1902,1732.7208,1730.9208,1729.7917,1729.6309,1729.3444,1728.5872,1726.983,1722.8126,1718.6057,1701.3386,1677.3313,1650.3997,1629.3821,1624.6035,1620.6957,1619.4552,1618.2332,1616.9175,1616.058,1615.3938,1614.7928,1614.4752,1614.5371,1614.5371,1614.1823,1613.5353,1612.6802,1611.794,1610.1635,1608.5304,1607.0879,1604.8895,1602.354,1599.2275,1596.7761,1595.1138,1593.3989,1593.3635,1598.1813,1607.088,1614.541,1628.0613,1648.13,1672.9432,1696.447,1708.6001,1724.4232,1740.6924,1751.3169,1756.186,1756.1255,1757.9938,1759.1692,1759.0854,1758.7568,1758.4714,1758.5541,1759.0823,1759.9213,1760.6195,1761.3453,1761.7808,1762.1096,1762.4033,1762.5885,1762.7349,1762.865,1763.0126,1763.1752,1763.3058,1763.4572,1763.6428,1763.7695,1763.8219,1763.7286,1763.5695,1763.3267,1763.0269,1762.6727,1762.1744,1761.7587,1761.2992,1760.7739,1760.3405,1759.678,1758.9525,1758.2826,1757.3362,1756.4961,1755.4956,1754.397,1753.6044,1752.6904,1751.9711,1751.449,1750.8918,1750.5347,1750.2905,1749.9216,1749.484,1748.5233,1747.4358,1746.7714,1745.5771,1744.6378,1744.6515,1745.1283,1745.5049,1745.2645,1744.7272,1745.0278,1741.5355,1735.5566,1734.5015,1717.1082,1686.2162,1602.5378,1521.1398,1495.7789,1478.1904,1474.085,1469.1312,1464.5541,1461.5039,1457.9878,1455.1526,1453.6097,1451.9484,1451.0344,1450.5634,1450.9647,1452.0431,1453.6432,1456.052,1458.2443,1462.2471,1463.8617,1460.6201,1454.4404,1449.3981,1447.6564,1445.1472,1440.7632,1440.0256,1435.4401,1421.0569,1401.9941,1387.6665,1371.9202,1361.6512,1360.732,1363.0973,1367.0308,1368.054,1368.9482,1369.4958,1369.7627,1371.2699,1373.5994,1376.4011,1378.414,1378.9863,1379.3956,1379.4873,1379.1278,1379.9377,1381.8225,1384.7804,1388.1564,1390.3846,1394.296,1398.9215,1404.5013,1410.0502,1412.941,1416.417,1420.4216,1424.1923,1428.324,1431.1409,1433.1221,1434.833,1435.768,1436.9554,1438.409,1439.7327,1441.2579,1442.5892,1443.7291,1445.6129,1447.4111,1449.163,1450.6606,1451.4658,1452.6327,1454.2062,1456.1573,1458.5303
1684.7305,1687.3396,1688.586,1690.382,1692.0555,1692.9337,1694.4292,1696.0696,1697.3641,1699.3269,1700.7115,1700.7096,1700.0548,1699.5623,1699.7034,1700.2391,1700.443,1701.6459,1703.3796,1705.0001,1707.0259,1708.6215,1710.4137,1712.4279,1714.4415,1716.0165,1716.5503,1716.9302,1717.258,1717.4828,1717.7216,1717.6677,1717.328,1716.9481,1716.6442,1716.1462,1716.6273,1717.9117,1719.2157,1720.5934,1721.6005,1722.5153,1723.3148,1724.3989,1725.7957,1726.88,1728.1174,1729.4813,1730.5332,1731.1936,1731.5117,1732.0864,1732.5697,1732.7666,1733.0809,1733.3818,1733.5398,1734.4073,1735.2863,1735.4857,1735.568,1735.4823,1735.2402,1734.8333,1734.495,1734.1045,1734.0166,1734.2512,1734.9714,1735.7468,1736.0864,1736.5657,1737.1195,1737.9211,1738.7961,1739.5117,1739.7363,1739.3962,1738.8163,1739.2389,1740.5161,1741.2347,1741.7527,1742.3,1742.448,1742.1233,1741.5638,1741.6642,1742.4966,1743.6779,1744.8845,1745.5156,1746.3275,1746.6122,1746.2708,1744.9908,1743.5569,1742.6552,1741.9243,1741.336,1740.9203,1740.6687,1740.2594,1740.0057,1739.982,1739.8971,1739.3705,1738.5814,1737.0923,1735.2063,1733.4991,1731.8292,1730.9852,1730.59,1729.9396,1728.9847,1726.1152,1722.1877,1721.35,1704.5602,1678.6089,1652.0713,1630.1837,1623.2032,1618.23,1616.774,1615.4984,1613.9443,1612.7502,1611.7643,1610.7906,1610.2446,1610.3387,1610.5408,1610.335,1609.7135,1608.7943,1607.8628,1606.4388,1605.1627,1604.0508,1602.0189,1599.4469,1596.2379,1593.238,1590.5654,1587.328,1584.59,1579.5387,1575.716,1575.1982,1578.8132,1594.1877,1621.549,1648.4353,1662.9165,1682.3503,1704.2905,1720.1892,1731.793,1736.8876,1740.7344,1745.3196,1748.6357,1751.2487,1752.6298,1752.638,1753.4679,1754.6317,1755.573,1756.5186,1757.0657,1757.4984,1757.8801,1758.1194,1758.4412,1758.7626,1759.0017,1759.261,1759.4587,1759.6692,1759.9315,1760.1239,1760.2516,1760.2333,1760.1289,1759.9515,1759.7185,1759.4419,1759.0637,1758.7605,1758.4364,1758.0974,1757.8391,1757.4231,1756.9528,1756.5166,1755.9011,1755.3296,1754.5424,1753.5895,1752.8652,1752.0427,1751.3975,1750.9321,1750.4034,1750.034,1749.7769,1749.355,1748.8469,1747.8054,1746.6951,1746.073,1745.0071,1744.2152,1744.3843,1744.87,1745.1055,1745.1584,1744.4205,1743.6868,1738.886,1730.1538,1723.8314,1690.6877,1642.2817,1559.7617,1493.8035,1483.0435,1474.2461,1470.4744,1466.5712,1462.6069,1459.8524,1456.9381,1454.7689,1453.7021,1452.3933,1451.5276,1451.1086,1450.903,1450.9824,1451.3586,1452.8453,1454.8436,1458.5992,1460.199,1456.9469,1452.3424,1449.4589,1448.4198,1446.2258,1442.3838,1440.4987,1435.6849,1424.1152,1410.1956,1399.8285,1384.3379,1372.885,1371.4264,1373.4911,1376.5889,1375.611,1375.3866,1376.3365,1377.4076,1379.5516,1381.8298,1384.7567,1386.8005,1387.199,1387.4779,1387.5841,1387.3038,1388.4077,1390.685,1394.6619,1398.936,1401.4866,1404.26,1406.4565,1408.7905,1412.044,1414.8898,1418.4928,1422.6144,1426.0648,1429.7407,1432.1399,1433.7651,1435.2556,1436.2054,1437.4614,1439.1189,1440.6671,1442.5292,1444.1559,1445.4559,1447.546,1449.5255,1451.4674,1453.1699,1454.1383,1455.3225,1456.8148,1458.7556,1461.1001
1684.28,1686.8258,1688.0143,1689.7812,1691.4071,1692.2229,1693.597,1695.0522,1696.1423,1697.8912,1699.1055,1698.7167,1697.9847,1697.8323,1698.3346,1699.2131,1699.6714,1701.0999,1702.8201,1704.0491,1705.7556,1707.3645,1709.1898,1711.0703,1712.7024,1714.0385,1714.6766,1715.4219,1716.231,1716.7456,1717.1359,1717.1571,1716.9192,1716.6584,1716.4446,1716.0381,1716.5103,1717.6827,1718.8433,1719.9932,1720.7611,1721.5984,1722.5126,1723.6891,1725.4188,1726.9686,1729.0314,1730.8492,1731.6305,1732.158,1732.4445,1732.9946,1733.4794,1733.7223,1734.1744,1734.6292,1734.8586,1735.7911,1736.7164,1736.9595,1737.103,1737.0704,1736.8835,1736.522,1736.2014,1735.8339,1735.783,1736.0717,1736.8372,1737.6304,1737.9982,1738.4541,1738.9408,1739.6615,1740.452,1741.1085,1741.2471,1740.8325,1740.2258,1740.4945,1741.5592,1742.1837,1742.6783,1743.2063,1743.2855,1742.9318,1742.4884,1742.644,1743.4321,1744.6803,1745.9387,1746.5337,1747.3387,1747.6471,1747.3401,1746.0829,1744.6504,1743.7671,1743.0682,1742.5092,1742.1465,1741.9395,1741.5219,1741.393,1741.5303,1741.427,1740.787,1739.9015,1738.3026,1736.2855,1734.414,1732.6538,1731.7942,1731.2584,1730.4379,1729.3806,1726.1703,1721.9868,1720.995,1705.7872,1681.9639,1656.6407,1633.179,1622.846,1616.6902,1615.4,1614.1771,1612.5549,1611.1654,1609.9915,1608.461,1607.2759,1607.0507,1607.2052,1607.0254,1606.4581,1605.6107,1604.7559,1603.3977,1602.1438,1600.9615,1599.1343,1597.0552,1594.6577,1592.0317,1588.8942,1584.5542,1580.7057,1574.743,1569.5656,1567.6549,1567.8341,1575.91,1591.9872,1609.2615,1620.4404,1635.5343,1655.8787,1673.331,1695.0347,1711.2782,1717.4993,1729.0698,1740.7994,1750.1815,1754.8438,1753.8441,1754.2119,1754.509,1754.2756,1753.7424,1753.2856,1753.2262,1753.259,1753.2793,1753.7059,1754.3087,1754.6859,1755.1133,1755.4463,1755.7786,1756.1729,1756.4565,1756.69,1756.7766,1756.7507,1756.676,1756.5448,1756.3748,1756.1372,1755.9473,1755.7493,1755.5604,1755.434,1755.198,1754.9167,1754.6633,1754.3065,1753.9608,1753.4288,1752.749,1752.2212,1751.6193,1751.1395,1750.7941,1750.357,1750.0126,1749.7693,1749.3243,1748.7759,1747.6783,1746.4994,1745.8185,1744.6569,1743.7104,1743.6108,1743.439,1742.928,1742.0564,1741.2874,1741.4385,1741.3159,1734.0288,1717.264,1660.4703,1590.9987,1523.0856,1482.848,1477.1486,1471.571,1468.1669,1464.9097,1461.4017,1458.905,1456.4888,1454.8411,1454.1022,1453.0435,1452.2343,1452.0798,1450.8743,1449.1442,1447.8129,1448.1395,1449.8824,1452.8317,1454.585,1453.5232,1451.5555,1450.0981,1449.6743,1447.8062,1444.4901,1440.8578,1435.0588,1426.4982,1414.4489,1404.2501,1392.0011,1382.9321,1380.9786,1380.8877,1381.8934,1380.9587,1380.7429,1381.8525,1384.3903,1387.1954,1388.5779,1390.7168,1392.4214,1393.0563,1393.74,1394.1847,1394.2156,1395.1296,1396.7664,1399.4951,1402.5875,1404.7261,1407.0741,1408.9338,1410.8268,1413.6228,1416.2094,1419.5376,1423.3478,1426.4869,1429.8313,1432.0521,1433.562,1435.3127,1436.7772,1438.6741,1440.9011,1442.7026,1444.7,1446.317,1447.6276,1449.7896,1451.8716,1453.9006,1455.7087,1456.7738,1458.0717,1459.6646,1461.6881,1464.1405
1685.8553,1688.37,1689.5974,1691.4214,1693.0781,1693.8729,1695.162,1696.6205,1697.8802,1699.9535,1701.3893,1700.7832,1700.0469,1700.2715,1701.1455,1702.3634,1703.1324,1704.5404,1705.9126,1706.7491,1708.1348,1709.6658,1711.4415,1713.0474,1714.1034,1715.0109,1715.6688,1716.7797,1718.0796,1718.8666,1719.3253,1719.3324,1719.1648,1718.9894,1718.8396,1718.5181,1718.8884,1719.8025,1720.6482,1721.3616,1721.7172,1722.2897,1723.1593,1724.2837,1726.1038,1727.8864,1730.5381,1732.6285,1733.0676,1733.4425,1733.7198,1734.232,1734.7426,1735.0746,1735.6663,1736.2677,1736.5715,1737.5667,1738.5226,1738.7842,1738.9541,1738.9429,1738.7677,1738.4065,1738.0796,1737.7351,1737.7148,1738.0143,1738.7834,1739.5712,1739.9409,1740.359,1740.7819,1741.4324,1742.1499,1742.7482,1742.8014,1742.3279,1741.7432,1741.9314,1742.8253,1743.24,1743.5731,1744.058,1744.0852,1743.7443,1743.4369,1743.6522,1744.384,1745.6763,1746.967,1747.526,1748.2944,1748.5901,1748.2997,1747.0795,1745.688,1744.864,1744.2451,1743.7526,1743.4546,1743.2906,1742.8955,1742.848,1743.0603,1742.9125,1742.1556,1741.1729,1739.5,1737.429,1735.5099,1733.6038,1732.5641,1731.8738,1730.8522,1729.6206,1726.3978,1721.8235,1719.4247,1706.1531,1685.6552,1660.9352,1635.2168,1621.5386,1614.4012,1613.5131,1612.3501,1610.7384,1609.2733,1608.0237,1606.0719,1604.3262,1603.6605,1603.6171,1603.457,1602.9844,1602.279,1601.5688,1600.296,1599.0284,1597.7365,1596.1787,1594.7506,1593.3721,1591.6,1588.8119,1584.5825,1580.9933,1577.3805,1574.4813,1573.1093,1572.069,1572.948,1575.1696,1579.889,1585.7573,1593.5824,1608.1119,1623.3851,1650.3134,1674.2163,1681.9569,1698.7708,1717.2876,1732.8156,1742.3473,1743.1373,1744.9207,1746.0278,1746.7634,1747.2245,1747.2572,1747.298,1747.2739,1747.2662,1747.8562,1748.6556,1749.0922,1749.5568,1749.8844,1750.1947,1750.5562,1750.8203,1751.0525,1751.169,1751.1837,1751.1747,1751.1298,1751.0608,1750.9838,1750.9447,1750.927,1750.9684,1751.0452,1751.0876,1751.082,1751.074,1751.0308,1750.9445,1750.735,1750.4167,1750.1552,1749.8622,1749.6259,1749.4618,1749.1764,1748.8854,1748.6698,1748.1965,1747.595,1746.419,1745.1024,1744.2595,1742.804,1741.5029,1740.9266,1740.0587,1738.9388,1737.1866,1735.2133,1734.3524,1732.2588,1719.9996,1690.5352,1618.083,1540.8163,1494.7936,1480.0435,1475.1011,1470.0166,1466.732,1463.8307,1460.7598,1458.6377,1456.7045,1455.4502,1454.8793,1453.9694,1453.1459,1453.0459,1450.7375,1447.3044,1444.6566,1444.0817,1445.4222,1447.4667,1449.4138,1450.8187,1451.3427,1450.8375,1450.8878,1449.2972,1446.4275,1441.2793,1434.5541,1428.539,1417.2042,1406.1946,1397.4419,1391.3931,1389.2,1386.9865,1386.0912,1385.9388,1386.1711,1387.327,1391.1024,1394.2825,1394.6223,1395.6984,1396.8512,1397.6924,1398.7571,1399.5088,1399.8058,1400.3547,1401.1101,1402.1475,1403.6189,1405.0831,1407.1384,1409.212,1411.4382,1414.3579,1416.7433,1419.9109,1423.5175,1426.4425,1429.6746,1431.9724,1433.5947,1435.7965,1437.8489,1440.4885,1443.3342,1445.3713,1447.4349,1448.9546,1450.2141,1452.4087,1454.5863,1456.6655,1458.5356,1459.6703,1461.1027,1462.8373,1464.9476,1467.5284
1685.37,1687.7317,1688.846,1690.6146,1692.3031,1693.1757,1694.5702,1696.1843,1697.628,1699.9106,1701.5315,1701.2362,1700.8575,1701.3047,1702.3966,1703.7913,1704.8213,1705.6245,1706.1122,1707.0227,1708.5721,1710.0349,1711.7858,1713.3202,1714.2336,1715.0557,1715.7822,1717.1018,1718.7021,1719.6964,1720.2496,1720.3192,1720.261,1720.1896,1720.1184,1719.911,1720.3292,1721.19,1721.9294,1722.4917,1722.7301,1723.2089,1724.0063,1725.0338,1726.653,1728.2673,1730.9958,1733.163,1733.5216,1733.9205,1734.2686,1734.7744,1735.4039,1735.9172,1736.6201,1737.3234,1737.7072,1738.7872,1739.811,1740.1239,1740.3605,1740.4027,1740.2764,1739.9562,1739.649,1739.3075,1739.2808,1739.5823,1740.3657,1741.1659,1741.5339,1741.916,1742.2875,1742.8876,1743.5535,1744.1058,1744.1034,1743.6006,1743.0316,1743.2251,1744.0913,1744.3921,1744.5999,1745.0293,1745.0604,1744.7568,1744.4502,1744.6049,1745.2551,1746.5267,1747.8058,1748.3297,1749.0701,1749.3689,1749.1161,1747.921,1746.53,1745.7311,1745.1562,1744.7046,1744.4277,1744.3107,1744.0408,1744.0763,1744.2697,1744.0453,1743.1769,1742.1201,1740.4384,1738.4368,1736.631,1734.7037,1733.4862,1732.5745,1731.108,1729.4158,1725.9806,1721.3085,1718.4142,1707.0685,1688.8073,1662.8676,1634.2928,1618.4019,1610.7906,1610.3755,1609.1512,1607.4917,1606.0013,1604.7227,1602.7191,1600.8943,1599.835,1599.497,1599.4303,1599.0503,1598.427,1597.8022,1596.6414,1595.4586,1594.1996,1592.7928,1591.6343,1590.501,1589.0944,1586.9597,1583.6252,1580.6433,1577.4469,1574.0137,1571.4592,1568.5494,1565.9917,1563.1343,1562.6298,1565.157,1568.112,1576.1669,1586.0721,1606.3177,1626.0472,1633.5237,1649.3817,1667.4556,1684.9713,1701.6285,1710.9628,1718.743,1725.0697,1732.4,1740.1636,1744.2152,1745.2467,1745.2843,1745.4825,1746.0656,1746.6019,1746.768,1746.7955,1746.6794,1746.5695,1746.4823,1746.4655,1746.433,1746.3824,1746.3243,1746.256,1746.2168,1746.1914,1746.2598,1746.404,1746.63,1747.0045,1747.3783,1747.8341,1748.1614,1748.3418,1748.4153,1748.3431,1748.1505,1747.8202,1747.5309,1747.2385,1747.0591,1746.9951,1746.8358,1746.6213,1746.4358,1745.9282,1745.2637,1743.9897,1742.4845,1741.3728,1739.6138,1738.201,1737.6444,1737.5287,1737.5438,1738.1127,1734.7134,1728.9177,1706.9653,1672.5751,1629.757,1562.1271,1503.5579,1476.7078,1474.6903,1471.8191,1468.1489,1465.172,1462.6539,1460.1854,1458.696,1457.2916,1456.2832,1455.691,1454.8165,1453.9089,1453.5247,1450.411,1446.1545,1443.4296,1442.7588,1443.5392,1445.1451,1447.2379,1449.3912,1450.9558,1451.1459,1451.543,1450.1952,1447.6084,1442.3115,1435.8519,1431.2609,1421.4221,1411.2075,1403.3345,1397.9136,1395.9026,1393.3566,1392.1276,1392.3007,1392.6785,1393.7445,1397.6567,1400.6793,1400.5607,1401.0676,1401.8307,1402.6333,1403.673,1404.3986,1404.7003,1405.0126,1405.3575,1405.6744,1406.3857,1407.4147,1408.9634,1410.6467,1412.4928,1415.1062,1417.3875,1420.4945,1424.0509,1426.8627,1430.2274,1432.8541,1434.7872,1437.3497,1439.6528,1442.6257,1445.7504,1447.9088,1450.0426,1451.5436,1452.7466,1454.9646,1457.2322,1459.3369,1461.2377,1462.4244,1463.9226,1465.7079,1467.8373,1470.4653
1684.7738,1686.9995,1688.0165,1689.7291,1691.4684,1692.4586,1694.0405,1695.9113,1697.622,1700.1812,1702.0382,1702.2443,1702.2452,1702.7106,1703.8245,1705.2207,1706.375,1706.4558,1706.0812,1707.3206,1709.2426,1710.6346,1712.3507,1713.9086,1714.9232,1715.8253,1716.5814,1717.9176,1719.5659,1720.6216,1721.2029,1721.3121,1721.3228,1721.3062,1721.2769,1721.1444,1721.6359,1722.5271,1723.2794,1723.8574,1724.132,1724.5792,1725.2499,1726.1353,1727.366,1728.5435,1730.8689,1732.8546,1733.3025,1733.8141,1734.2574,1734.7717,1735.5287,1736.2108,1736.9574,1737.6864,1738.1196,1739.2599,1740.3372,1740.6869,1740.969,1741.046,1740.9492,1740.6561,1740.365,1740.0134,1739.9508,1740.2115,1740.981,1741.7925,1742.1559,1742.5175,1742.8655,1743.4614,1744.1262,1744.6642,1744.6522,1744.1621,1743.6273,1743.9144,1744.8712,1745.1212,1745.2238,1745.6056,1745.6764,1745.4209,1745.0376,1745.0852,1745.6692,1746.876,1748.1112,1748.6195,1749.3384,1749.6342,1749.4089,1748.2301,1746.8353,1746.0469,1745.4951,1745.0673,1744.7809,1744.6891,1744.5607,1744.6239,1744.7183,1744.4335,1743.5187,1742.4417,1740.8096,1738.9453,1737.3389,1735.437,1734.0453,1732.9685,1731.1282,1729.0205,1725.5039,1720.8646,1717.6643,1707.356,1690.0049,1661.9524,1631.2041,1614.9115,1607.4628,1607.4407,1606.1278,1604.4607,1603.0585,1601.8613,1600.1346,1598.6083,1597.342,1596.7354,1596.745,1596.4277,1595.8508,1595.2751,1594.2133,1593.1326,1591.973,1590.613,1589.4423,1588.0647,1586.7584,1585.4907,1583.6101,1581.7438,1579.0221,1575.224,1571.8958,1568.5887,1566.5089,1565.1178,1564.9534,1566.0009,1566.5588,1568.9758,1572.5067,1579.933,1588.7618,1594.5524,1605.2423,1617.7997,1633.2417,1655.1034,1673.6558,1687.82,1700.0388,1714.8125,1731.0093,1739.9541,1742.6108,1743.249,1743.943,1744.6002,1744.7904,1744.6534,1744.1969,1743.588,1743.0024,1742.3977,1742.0487,1741.696,1741.4243,1741.2545,1741.0736,1740.9889,1740.9552,1741.1063,1741.3892,1741.8135,1742.4778,1743.1158,1743.9402,1744.5687,1744.9258,1745.114,1745.0615,1744.8903,1744.5519,1744.2374,1743.9536,1743.8335,1743.8582,1743.8079,1743.6575,1743.4945,1742.9515,1742.2275,1740.8646,1739.1901,1737.8403,1735.77,1734.2112,1733.6554,1734.3695,1735.6465,1738.4153,1732.7374,1720.7502,1675.3179,1617.4534,1567.2916,1518.768,1491.9149,1476.8043,1473.7391,1470.934,1467.4214,1464.633,1462.2373,1460.2043,1459.2649,1458.1649,1457.1456,1456.3679,1455.4102,1454.3667,1453.4448,1450.0374,1446.0122,1444.1681,1444.0193,1444.3373,1445.9297,1448.065,1449.6791,1450.8551,1451.0668,1451.51,1450.2549,1447.7006,1443.2686,1437.7181,1433.0294,1424.0114,1414.8213,1405.9858,1399.7473,1398.1932,1396.5751,1396.2081,1396.5918,1397.0957,1398.0238,1401.1724,1403.5988,1403.5297,1403.9081,1404.4651,1405.0819,1405.8511,1406.35,1406.4789,1406.6686,1406.9752,1407.3013,1407.933,1408.7545,1409.9635,1411.3206,1412.8717,1415.3137,1417.6204,1420.7952,1424.4529,1427.3007,1430.9731,1434.0325,1436.3397,1439.1174,1441.3857,1444.3331,1447.4226,1449.5708,1451.7153,1453.2161,1454.3584,1456.5643,1458.8713,1460.9554,1462.8314,1464.0226,1465.5208,1467.2919,1469.3868,1471.9941
1684.7963,1686.9884,1688.0758,1689.795,1691.5717,1692.6304,1694.3407,1696.3894,1698.2806,1701.0654,1702.9889,1702.9094,1702.5082,1702.7552,1703.8402,1705.332,1706.5016,1706.662,1706.4403,1707.9741,1710.0742,1711.4087,1713.096,1714.6534,1715.7056,1716.642,1717.4248,1718.8022,1720.5022,1721.5906,1722.1609,1722.2839,1722.3655,1722.425,1722.4534,1722.3774,1722.8887,1723.7786,1724.7162,1725.4337,1725.6571,1726.0295,1726.5862,1727.3531,1728.3079,1729.1451,1730.8901,1732.5085,1733.0514,1733.651,1734.1575,1734.6593,1735.4814,1736.2711,1737.0623,1737.8438,1738.3425,1739.5546,1740.6893,1741.0763,1741.4048,1741.5165,1741.4473,1741.1749,1740.8926,1740.5453,1740.3887,1740.4358,1741.0996,1741.9663,1742.428,1742.8197,1743.1,1743.7543,1744.5061,1745.0581,1745.0608,1744.6095,1744.1761,1744.5963,1745.6316,1745.8457,1745.8629,1746.209,1746.2748,1746.0042,1745.5267,1745.4565,1745.9662,1747.0867,1748.2755,1748.793,1749.5079,1749.8132,1749.6321,1748.5023,1747.1335,1746.3622,1745.8351,1745.44,1745.1501,1745.0713,1745.0372,1745.139,1745.2112,1744.9869,1744.1461,1743.1016,1741.5017,1739.6594,1738.1007,1736.0476,1734.4061,1733.192,1731.2872,1729.1818,1725.7314,1720.8148,1716.8441,1706.223,1688.5195,1658.1857,1625.7052,1609.5286,1602.2515,1602.5061,1601.2623,1599.7755,1598.6152,1597.6664,1596.3263,1595.1233,1593.9415,1593.2437,1593.1622,1592.8593,1592.4099,1591.9752,1591.1431,1590.2659,1589.2915,1588.0735,1586.9847,1585.5153,1584.2555,1583.4541,1582.3912,1581.2307,1579.0837,1575.6306,1572.3894,1569.0293,1566.7548,1565.3654,1564.3315,1563.777,1562.33,1560.7286,1559.855,1558.9089,1560.2654,1563.9868,1569.7334,1576.6716,1587.4846,1606.898,1625.853,1640.7856,1654.5867,1670.8284,1689.8811,1702.3236,1709.5552,1714.713,1717.5787,1720.0425,1721.2047,1721.6699,1721.843,1721.5787,1721.1443,1720.5725,1720.1923,1719.8447,1719.6024,1719.4686,1719.323,1719.2848,1719.3198,1719.6289,1720.0994,1720.7814,1721.8632,1722.9221,1724.313,1725.7455,1727.1527,1729.043,1730.5929,1732.2706,1733.9619,1735.1277,1736.5728,1737.6783,1738.3903,1738.7458,1738.5895,1738.3755,1737.6154,1736.649,1735.0482,1733.2231,1731.9655,1729.2167,1726.1276,1723.338,1720.1586,1717.543,1711.2975,1694.3038,1673.4481,1618.4309,1557.9404,1513.1605,1484.4001,1479.7682,1474.4984,1471.9812,1469.5942,1466.4961,1464.0149,1461.9926,1460.5273,1460.0751,1459.2334,1458.2501,1457.4454,1456.577,1455.2749,1453.0093,1449.2968,1446.2793,1445.0182,1444.9338,1444.8556,1446.2292,1448.2125,1449.4128,1450.4307,1450.826,1451.3234,1450.2081,1447.8527,1444.1101,1439.3356,1434.9004,1426.955,1418.9331,1410.002,1403.5321,1402.2266,1401.2084,1401.4319,1401.9567,1403.0679,1404.3923,1406.3516,1407.6947,1407.6509,1407.8328,1408.1663,1408.6238,1409.2047,1409.5703,1409.6061,1409.6962,1409.9186,1410.127,1410.5497,1411.1061,1412.0775,1413.3019,1414.7025,1417.0372,1419.3223,1422.4442,1426.0461,1428.8359,1432.6665,1435.9956,1438.4785,1441.3925,1443.7059,1446.6869,1449.8002,1451.9764,1454.1483,1455.6443,1456.7346,1458.9181,1461.2395,1463.2812,1465.1124,1466.2957,1467.7819,1469.5195,1471.5472,1474.0925
1685.5643,1687.8873,1689.2014,1691.0042,1692.7933,1693.8362,1695.5533,1697.6066,1699.4883,1702.3165,1704.0631,1702.9316,1701.3947,1701.205,1702.1664,1703.7775,1704.8137,1705.8383,1706.765,1708.4403,1710.4569,1711.786,1713.4722,1715.0283,1716.0782,1717.0166,1717.8079,1719.2125,1720.8961,1721.9264,1722.4171,1722.5061,1722.6272,1722.746,1722.8169,1722.7457,1723.2206,1724.0996,1725.3624,1726.3335,1726.4636,1726.7673,1727.2782,1728.0118,1728.9308,1729.6713,1730.8812,1732.0897,1732.7097,1733.3354,1733.839,1734.3175,1735.1051,1735.8761,1736.6831,1737.513,1738.0598,1739.317,1740.4818,1740.8878,1741.2397,1741.3684,1741.3108,1741.0438,1740.76,1740.436,1740.1769,1739.9342,1740.4546,1741.4052,1742.029,1742.5022,1742.7206,1743.4937,1744.4026,1745.0018,1745.0535,1744.6564,1744.3241,1744.8552,1745.9478,1746.1794,1746.1848,1746.5292,1746.5587,1746.2203,1745.6565,1745.5044,1745.9769,1747.0365,1748.2065,1748.7637,1749.4994,1749.8171,1749.6652,1748.5808,1747.2465,1746.4851,1745.9658,1745.5886,1745.2982,1745.2104,1745.1748,1745.2878,1745.4033,1745.3231,1744.6514,1743.6951,1742.1064,1740.164,1738.4845,1736.1581,1734.2849,1733.0334,1731.3783,1729.6356,1726.4408,1721.2511,1716.5747,1704.7013,1685.8241,1654.5323,1621.6206,1605.6448,1598.3264,1598.5968,1597.5298,1596.3022,1595.406,1594.7433,1593.7135,1592.7114,1591.8856,1591.3285,1591.0204,1590.6647,1590.3539,1590.0764,1589.4869,1588.8109,1588.0037,1586.907,1585.8921,1584.4453,1583.097,1582.1111,1580.8433,1579.667,1577.9153,1575.4196,1573.211,1570.419,1567.951,1566.0598,1564.2317,1563.1023,1561.5446,1559.9532,1558.9908,1557.9353,1558.4521,1560.669,1563.7799,1567.2561,1572.6437,1582.6249,1592.649,1602.2856,1612.6833,1623.679,1638.7847,1652.0492,1665.3649,1677.6093,1683.6915,1689.2144,1692.4451,1694.2744,1695.9927,1696.7516,1696.9907,1696.9082,1696.7395,1696.6691,1696.6674,1696.69,1696.7041,1696.7919,1696.9592,1697.4717,1698.1407,1699.0774,1700.572,1702.056,1703.9885,1706.4193,1709.3748,1713.955,1718.1305,1722.8441,1727.9097,1731.5635,1735.881,1738.9514,1740.6708,1741.5283,1741.2324,1740.782,1739.5516,1738.16,1736.2494,1734.5302,1733.9608,1730.8768,1725.8213,1719.6785,1709.541,1699.4098,1676.0372,1642.522,1613.1803,1566.4127,1525.7377,1497.4727,1480.6426,1478.2488,1474.103,1471.1193,1468.9274,1466.0232,1463.7374,1462.0764,1460.9749,1460.6765,1459.8475,1458.8682,1458.1871,1457.6075,1456.1157,1452.2393,1448.392,1446.8555,1445.7023,1445.2816,1445.1444,1446.3597,1448.1389,1449.115,1450.0648,1450.5676,1451.0576,1450.0415,1447.9028,1444.4089,1439.8491,1435.5198,1428.008,1420.5394,1412.102,1405.8835,1404.5085,1403.5695,1403.9452,1404.4779,1406.5338,1408.7668,1409.6062,1409.8627,1409.9093,1410.0199,1410.2738,1410.6669,1411.2026,1411.5581,1411.5865,1411.6526,1411.8372,1411.9669,1412.2612,1412.6621,1413.6655,1415.0626,1416.5743,1418.9637,1421.2194,1424.2263,1427.6741,1430.3658,1434.1455,1437.4517,1439.8264,1442.7054,1445.0809,1448.0825,1451.2245,1453.4457,1455.6467,1457.143,1458.2219,1460.3867,1462.6892,1464.6873,1466.4734,1467.6367,1469.0972,1470.794,1472.7604,1475.2352
1685.8423,1688.1605,1689.6239,1691.4504,1693.2216,1694.2463,1695.9639,1698.0378,1699.9469,1702.8561,1704.5732,1702.9681,1700.9188,1700.5502,1701.4851,1703.1688,1704.0763,1705.9247,1707.9354,1709.6996,1711.5869,1712.8889,1714.547,1716.0695,1717.085,1717.9941,1718.7637,1720.124,1721.7789,1722.8138,1723.3174,1723.4067,1723.5035,1723.6239,1723.7008,1723.6016,1724.0105,1724.8434,1726.2355,1727.305,1727.3668,1727.6141,1728.0881,1728.7947,1729.7054,1730.3954,1731.1731,1732.0449,1732.7311,1733.381,1733.8787,1734.3292,1735.0717,1735.8081,1736.5995,1737.4286,1737.981,1739.2529,1740.4285,1740.8295,1741.1746,1741.2959,1741.2245,1740.9387,1740.6405,1740.3033,1739.9325,1739.4519,1739.8223,1740.7947,1741.5236,1742.0239,1742.1509,1742.9583,1743.9429,1744.5634,1744.6243,1744.2673,1744.0961,1744.7418,1745.8224,1746.0488,1746.0431,1746.3878,1746.3528,1745.9352,1745.353,1745.1766,1745.6139,1746.594,1747.7098,1748.281,1749.0261,1749.368,1749.2642,1748.2585,1746.9857,1746.239,1745.7294,1745.3807,1745.0916,1744.9835,1744.9196,1745.068,1745.2854,1745.3909,1744.8867,1743.9784,1742.3766,1740.3319,1738.5189,1736.0547,1734.1526,1732.9447,1731.7913,1730.7577,1727.6208,1721.5734,1715.9039,1700.9575,1678.7767,1645.2429,1613.1206,1600.2257,1593.8137,1593.9453,1593.1079,1592.2179,1591.6556,1591.3234,1590.6914,1589.9875,1589.5865,1589.2194,1588.7267,1588.3297,1588.1298,1587.9733,1587.5726,1587.0645,1586.4661,1585.5663,1584.6699,1583.3071,1581.8959,1580.7052,1579.1298,1577.8091,1576.3269,1574.6855,1573.4548,1571.3856,1569.0922,1567.0929,1564.9867,1563.7147,1562.5372,1561.6602,1561.2659,1561.1506,1561.5973,1562.3165,1563.2047,1563.8549,1564.3441,1565.1218,1566.0519,1569.5167,1575.0718,1579.7019,1588.6803,1599.9359,1615.2875,1630.4698,1637.6791,1644.2947,1648.3744,1650.8693,1653.6238,1655.3639,1656.428,1657.2048,1657.5851,1658.0244,1658.3671,1658.5758,1658.7493,1658.885,1659.0553,1659.4838,1660.0353,1660.8431,1662.286,1663.8138,1665.8455,1668.684,1672.3691,1678.3223,1683.8871,1690.1884,1697.0038,1701.9352,1707.6846,1711.7607,1714.0901,1715.3456,1715.1599,1715.0345,1714.1101,1712.8407,1710.8512,1708.6478,1707.5471,1702.7751,1695.2488,1686.093,1670.6643,1655.1476,1621.253,1580.289,1549.8248,1518.4885,1500.7157,1489.4016,1482.0283,1478.7137,1474.258,1470.6461,1468.5621,1465.9135,1463.9584,1462.6957,1461.8721,1461.5898,1460.7954,1459.8823,1459.3364,1458.6709,1456.7657,1451.9596,1448.3301,1448.0001,1446.9047,1446.1094,1445.8423,1446.6027,1447.8496,1448.4473,1449.3094,1449.9963,1450.4193,1449.4268,1447.4868,1444.3541,1440.3174,1436.5002,1430.0254,1423.5693,1415.8572,1409.9689,1408.5322,1407.8473,1408.4346,1408.8107,1411.0299,1413.3838,1413.2103,1412.5967,1412.6622,1412.6797,1412.8583,1413.1904,1413.7266,1414.1478,1414.2583,1414.4086,1414.6324,1414.7733,1415.0383,1415.3857,1416.4506,1417.9794,1419.5905,1422.0128,1424.2128,1427.0625,1430.3287,1432.9326,1436.6187,1439.8254,1442.0249,1444.8016,1447.2028,1450.197,1453.3198,1455.5189,1457.7036,1459.1852,1460.2446,1462.358,1464.6005,1466.5361,1468.2605,1469.3839,1470.8064,1472.4443,1474.3086,1476.6719
1684.7325,1686.7792,1688.1465,1689.8604,1691.5724,1692.6033,1694.346,1696.5149,1698.5607,1701.6444,1703.6544,1702.8848,1701.7083,1701.7013,1702.8572,1704.5677,1705.4686,1707.48,1709.6918,1711.481,1713.3068,1714.5347,1716.1211,1717.573,1718.5281,1719.3763,1720.0924,1721.3331,1723.0172,1724.2334,1724.957,1725.1439,1725.1409,1725.1836,1725.2156,1725.0686,1725.414,1726.1713,1727.2964,1728.1465,1728.2126,1728.4398,1728.8861,1729.5635,1730.4445,1731.1077,1731.7949,1732.6082,1733.3187,1733.997,1734.5095,1734.9454,1735.6838,1736.4226,1737.1812,1737.9565,1738.4678,1739.7258,1740.8961,1741.2701,1741.5796,1741.6696,1741.558,1741.2294,1740.9038,1740.488,1740.0325,1739.516,1739.8044,1740.6937,1741.3905,1741.8173,1741.8441,1742.5243,1743.4166,1744.0199,1744.0195,1743.6475,1743.6447,1744.3635,1745.3466,1745.4977,1745.4277,1745.7411,1745.5945,1745.0996,1744.6034,1744.483,1744.8849,1745.7888,1746.819,1747.3466,1748.0916,1748.4943,1748.4739,1747.5863,1746.3973,1745.681,1745.1989,1744.899,1744.6161,1744.4716,1744.3524,1744.523,1744.8319,1745.0458,1744.5779,1743.6055,1741.9459,1739.8708,1738.0256,1735.753,1734.1736,1733.1362,1732.6565,1732.5482,1729.2483,1722.055,1715.5204,1697.3667,1671.1866,1633.1826,1601.9064,1594.7897,1590.2166,1590.0922,1589.3882,1588.7347,1588.4269,1588.3151,1588.036,1587.6577,1587.4912,1587.2147,1586.7141,1586.3179,1586.1229,1585.9642,1585.5845,1585.1292,1584.6951,1584.0013,1583.2332,1581.9675,1580.5974,1579.46,1577.8705,1576.4966,1575.0459,1573.5415,1572.4679,1570.7859,1568.9852,1567.4164,1565.6755,1564.5544,1563.6079,1562.8074,1562.2954,1561.7003,1561.2114,1560.8805,1560.4025,1559.7651,1558.561,1556.7057,1555.1985,1555.8354,1558.1857,1559.7683,1564.367,1571.3174,1581.5336,1591.6011,1596.1187,1600.1472,1602.6536,1604.3275,1606.8075,1609.0476,1610.8478,1612.7742,1614.0796,1615.2378,1615.9952,1616.4044,1616.7386,1616.8489,1616.8789,1616.8907,1616.9526,1617.1875,1618.0,1619.0593,1620.6083,1622.8613,1625.7052,1630.3513,1634.7186,1639.6083,1644.8157,1648.5266,1652.7899,1655.9731,1658.1482,1659.6393,1660.0697,1661.2842,1662.0243,1661.8127,1660.1619,1656.5149,1652.803,1644.317,1634.114,1623.5803,1607.9098,1593.0194,1564.6095,1533.7582,1513.1201,1495.3138,1487.8829,1482.9465,1479.4252,1477.1708,1473.6729,1470.349,1468.3373,1466.0449,1464.5306,1463.5874,1462.8765,1462.4983,1461.8306,1461.2001,1460.9945,1459.722,1457.0663,1452.6884,1449.5393,1449.3091,1448.2802,1447.3539,1446.8647,1446.9386,1447.4362,1447.579,1448.4824,1449.5729,1449.9744,1448.9117,1447.0303,1444.3644,1441.2476,1438.4453,1433.664,1428.5614,1421.2037,1415.2604,1413.8344,1413.784,1414.8463,1414.9816,1416.0431,1417.1152,1416.5038,1415.6799,1415.5634,1415.3818,1415.4249,1415.676,1416.2167,1416.7456,1417.0189,1417.3585,1417.6941,1417.943,1418.296,1418.7247,1419.7769,1421.2205,1422.7902,1425.1501,1427.2845,1430.0142,1433.176,1435.7513,1439.3948,1442.5417,1444.6414,1447.3353,1449.7129,1452.6777,1455.7252,1457.8134,1459.9208,1461.3654,1462.3798,1464.4161,1466.5858,1468.464,1470.1322,1471.2095,1472.5963,1474.1785,1475.9314,1478.1888
1683.6896,1685.4368,1686.6431,1688.2289,1689.8893,1690.9388,1692.704,1694.9552,1697.1271,1700.3466,1702.6932,1703.1246,1703.2211,1703.7281,1705.0887,1706.7214,1707.6549,1709.5131,1711.5074,1713.2517,1715.0406,1716.2097,1717.7329,1719.116,1720.0084,1720.7982,1721.4615,1722.5736,1724.2562,1725.617,1726.5303,1726.7932,1726.6797,1726.6241,1726.5957,1726.4009,1726.6957,1727.3795,1728.1207,1728.6631,1728.7703,1729.0061,1729.4427,1730.1012,1730.9651,1731.639,1732.4368,1733.3431,1734.0454,1734.7394,1735.2645,1735.6888,1736.4293,1737.1705,1737.8788,1738.5662,1739.0042,1740.2181,1741.3629,1741.6969,1741.9568,1742.0076,1741.8517,1741.4812,1741.1326,1740.6425,1740.1533,1739.7122,1739.9729,1740.743,1741.3336,1741.6486,1741.6019,1742.1125,1742.8445,1743.3901,1743.3049,1742.9099,1743.0496,1743.8004,1744.6554,1744.7467,1744.6555,1744.9651,1744.7664,1744.2544,1743.882,1743.8534,1744.2406,1745.0885,1746.0364,1746.5093,1747.2256,1747.6499,1747.6763,1746.8645,1745.733,1745.0288,1744.5563,1744.2865,1744.0065,1743.8461,1743.7047,1743.9415,1744.3657,1744.6683,1744.2013,1743.1455,1741.4451,1739.3827,1737.5359,1735.5189,1734.295,1733.3749,1733.343,1733.8821,1730.1478,1721.6857,1714.3892,1692.5201,1662.0111,1620.9409,1591.7445,1590.4392,1587.8375,1587.4886,1586.8984,1586.4329,1586.309,1586.3282,1586.2999,1586.1814,1586.134,1585.9136,1585.4983,1585.1387,1584.9137,1584.71,1584.2635,1583.7788,1583.4658,1582.9626,1582.3146,1581.1633,1579.8796,1578.8579,1577.3131,1575.8748,1574.2938,1572.5641,1571.2675,1569.76,1568.5206,1567.5668,1566.4932,1565.7563,1565.1146,1564.485,1564.0107,1563.238,1562.3862,1561.6725,1560.9954,1560.5304,1559.7693,1558.7999,1558.0955,1557.7839,1558.0544,1558.3799,1559.8209,1561.9442,1564.5896,1566.7529,1567.297,1567.5157,1567.5958,1567.8695,1569.3118,1571.4312,1573.4854,1576.0919,1578.0306,1579.6136,1580.5507,1581.0043,1581.3197,1581.2642,1581.0315,1580.4788,1579.9299,1579.4299,1579.3715,1579.7285,1580.481,1581.6537,1582.9663,1585.1278,1587.1511,1589.2908,1591.4036,1592.8042,1594.3162,1595.678,1597.1189,1598.4446,1599.3817,1601.7198,1603.9957,1604.8577,1603.6371,1598.7554,1592.5468,1581.2147,1569.8212,1559.7416,1547.1404,1536.3174,1520.6512,1506.791,1499.4597,1492.508,1488.3004,1483.7704,1479.3502,1476.7122,1473.4528,1470.5404,1468.5376,1466.5256,1465.3612,1464.5726,1463.826,1463.3038,1462.7684,1462.2705,1462.0405,1459.9984,1456.851,1453.6569,1451.1372,1450.4463,1449.4454,1448.4728,1447.7141,1447.115,1446.9249,1446.701,1447.5674,1448.8689,1449.1698,1447.9899,1446.1226,1443.8296,1441.5272,1439.6718,1436.424,1432.552,1425.6786,1419.8774,1418.5471,1418.9688,1420.2507,1420.0927,1419.6426,1419.1349,1418.543,1417.9755,1417.6975,1417.4089,1417.3995,1417.6243,1418.2169,1418.869,1419.303,1419.8302,1420.2852,1420.6614,1421.141,1421.7046,1422.7322,1424.0286,1425.5115,1427.781,1429.8523,1432.4865,1435.5864,1438.1707,1441.7731,1444.8446,1446.8702,1449.4773,1451.7971,1454.7267,1457.694,1459.6538,1461.6754,1463.0886,1464.0734,1466.0398,1468.1342,1469.967,1471.5945,1472.6328,1473.9971,1475.539,1477.1969,1479.3618
1684.3282,1685.9995,1687.216,1688.794,1690.4712,1691.5569,1693.3474,1695.6255,1697.8339,1701.0762,1703.5316,1704.4496,1705.0679,1705.7776,1707.0051,1708.3837,1709.3032,1711.1459,1713.1176,1714.8141,1716.5812,1717.769,1719.2886,1720.6434,1721.4943,1722.2739,1722.9329,1723.9908,1725.5453,1726.7733,1727.562,1727.7396,1727.5925,1727.5026,1727.4524,1727.2441,1727.5099,1728.1464,1728.7263,1729.145,1729.2716,1729.5121,1729.9369,1730.5685,1731.3958,1732.0457,1732.8345,1733.739,1734.4384,1735.1439,1735.6726,1736.071,1736.7961,1737.5283,1738.1792,1738.7701,1739.1261,1740.2739,1741.3761,1741.67,1741.889,1741.9154,1741.7365,1741.3495,1740.9956,1740.5067,1740.0262,1739.6002,1739.8312,1740.5316,1741.0343,1741.2659,1741.1812,1741.6168,1742.2446,1742.6825,1742.5284,1742.1635,1742.4443,1743.2297,1743.9811,1744.1161,1744.1497,1744.5552,1744.495,1744.0973,1743.7969,1743.8146,1744.2019,1744.9934,1745.8741,1746.3312,1746.9513,1747.2582,1747.2164,1746.3534,1745.1992,1744.4401,1743.9131,1743.6179,1743.3265,1743.2225,1743.1895,1743.6475,1744.2922,1744.7924,1744.4507,1743.4128,1741.779,1739.7496,1737.8547,1735.8317,1734.6042,1733.5336,1733.3389,1733.7948,1729.2816,1719.5912,1711.7975,1684.794,1648.982,1608.8171,1583.7354,1586.1166,1585.0095,1584.6769,1584.3127,1584.1364,1584.2434,1584.4287,1584.6375,1584.7343,1584.8346,1584.6996,1584.3406,1584.0536,1583.8868,1583.7329,1583.2866,1582.7815,1582.6266,1582.3575,1581.8599,1580.856,1579.6692,1578.7374,1577.2404,1575.7844,1574.164,1572.3657,1571.0049,1569.5825,1568.5533,1567.8152,1566.9167,1566.2235,1565.5906,1564.9207,1564.3994,1563.567,1562.6434,1561.8466,1561.1316,1560.6774,1559.9128,1558.8738,1558.032,1556.7476,1555.3883,1554.3818,1553.341,1552.4292,1551.0189,1549.0347,1547.4283,1545.5419,1544.1666,1543.543,1543.8925,1545.1879,1546.6163,1548.6011,1550.1287,1551.2834,1551.8201,1551.9637,1551.855,1551.3839,1550.7579,1549.6597,1548.63,1547.5194,1546.731,1546.4968,1546.4979,1546.7675,1547.0111,1547.4698,1547.8746,1548.0609,1547.9718,1547.752,1547.3153,1547.1416,1547.5236,1548.0176,1548.6245,1550.4381,1552.402,1553.3026,1552.1931,1547.5004,1541.2705,1530.9487,1521.3662,1513.2399,1504.2003,1497.2029,1490.1248,1486.4026,1486.249,1485.893,1484.7758,1482.2792,1478.8427,1476.318,1473.415,1470.788,1468.9103,1467.1145,1466.1261,1465.3584,1464.7499,1464.4423,1464.1324,1463.1105,1461.5681,1458.853,1456.0833,1453.8578,1451.9568,1451.1241,1450.244,1449.1224,1447.9019,1446.7467,1446.1316,1445.7035,1446.1963,1447.1129,1447.0912,1445.8575,1444.1906,1442.1974,1440.3413,1438.9415,1436.6879,1433.9508,1428.4948,1423.817,1422.7828,1423.0321,1423.757,1423.2515,1422.0328,1420.8527,1420.2222,1419.8394,1419.666,1419.5153,1419.6329,1419.9341,1420.6399,1421.3864,1421.8798,1422.4553,1422.9382,1423.3237,1423.8049,1424.3883,1425.3733,1426.583,1427.9901,1430.1725,1432.1779,1434.68,1437.6804,1440.2673,1443.812,1446.7958,1448.7542,1451.2799,1453.546,1456.4843,1459.4446,1461.3396,1463.3353,1464.7582,1465.7554,1467.6793,1469.6995,1471.4869,1473.0808,1474.0962,1475.4584,1476.9768,1478.5529,1480.62
1685.9882,1687.7955,1689.1353,1690.8018,1692.5443,1693.6642,1695.4685,1697.7114,1699.8615,1703.0115,1705.352,1706.0548,1706.4574,1707.0663,1707.9479,1709.0231,1709.9136,1711.7555,1713.7328,1715.3811,1717.1598,1718.4261,1719.9972,1721.3729,1722.2201,1723.036,1723.7334,1724.8226,1726.2025,1727.1294,1727.5931,1727.5913,1727.4862,1727.4243,1727.3898,1727.2021,1727.4761,1728.1115,1728.7524,1729.2297,1729.3608,1729.6111,1730.0349,1730.6511,1731.4515,1732.0759,1732.8331,1733.713,1734.405,1735.1091,1735.6321,1736.0082,1736.7142,1737.4336,1738.046,1738.5721,1738.87,1739.957,1741.0168,1741.287,1741.4879,1741.5112,1741.3358,1740.96,1740.6174,1740.1897,1739.7628,1739.3322,1739.5647,1740.2601,1740.711,1740.9125,1740.8457,1741.3074,1741.9071,1742.2397,1742.0553,1741.7429,1742.0841,1742.8744,1743.5828,1743.8274,1744.0548,1744.5978,1744.7789,1744.5624,1744.2676,1744.2814,1744.6859,1745.4556,1746.3164,1746.7921,1747.301,1747.4249,1747.244,1746.2374,1744.996,1744.1472,1743.5345,1743.1752,1742.866,1742.8539,1742.9879,1743.6936,1744.541,1745.2216,1745.0326,1744.0796,1742.5723,1740.5917,1738.6475,1736.4377,1734.9396,1733.5745,1732.7522,1732.5046,1727.2649,1717.0491,1709.4141,1678.7267,1639.4204,1603.1299,1581.9299,1584.4382,1583.7141,1583.5854,1583.41,1583.4359,1583.6676,1583.9305,1584.2086,1584.3525,1584.5088,1584.4264,1584.1014,1583.8893,1583.8081,1583.7391,1583.3148,1582.7771,1582.7134,1582.5879,1582.1844,1581.2836,1580.1671,1579.2793,1577.8286,1576.3992,1574.7795,1572.9532,1571.5616,1570.0381,1568.852,1567.9604,1566.8544,1565.9872,1565.1465,1564.3213,1563.7626,1563.1001,1562.572,1562.2034,1561.9983,1561.9148,1561.5118,1560.8569,1560.2832,1559.1323,1557.7096,1556.5891,1555.2826,1554.148,1552.7583,1550.8237,1549.1959,1547.2334,1545.6398,1544.7909,1544.3148,1544.4453,1544.708,1545.193,1545.5863,1545.7527,1545.554,1545.2129,1544.5144,1543.5945,1542.6315,1541.2327,1540.0314,1538.6678,1537.5559,1537.0454,1536.6123,1536.4196,1536.2833,1536.1458,1535.9585,1535.3793,1534.4285,1533.6014,1532.4264,1531.4138,1530.8162,1530.2285,1529.9619,1530.1179,1530.4001,1530.497,1529.2162,1525.8242,1521.602,1515.1536,1509.3583,1503.9952,1498.1917,1494.0167,1490.239,1488.2849,1487.8859,1486.4258,1484.3112,1482.1129,1479.0732,1476.5112,1473.6302,1471.0797,1469.3347,1467.5669,1466.4951,1465.5706,1465.1489,1465.2656,1465.1632,1463.2921,1459.9174,1456.8795,1455.079,1453.3982,1451.8313,1450.9934,1450.2432,1449.0051,1447.3871,1446.0629,1445.4789,1445.117,1445.1367,1445.3263,1444.9476,1443.73,1442.302,1440.369,1438.3994,1436.7999,1434.5409,1432.2385,1428.2612,1424.9816,1424.2817,1423.8746,1423.6141,1422.8724,1421.7485,1420.8618,1420.3127,1420.1146,1420.2125,1420.354,1420.7035,1421.1418,1421.9672,1422.741,1423.1804,1423.6675,1424.0933,1424.3961,1424.7916,1425.311,1426.2565,1427.4518,1428.8164,1430.9507,1432.9237,1435.3401,1438.2764,1440.8743,1444.3804,1447.3092,1449.2512,1451.7432,1453.977,1456.9546,1459.9711,1461.8801,1463.9102,1465.374,1466.415,1468.3423,1470.327,1472.0962,1473.6844,1474.7043,1476.086,1477.6123,1479.1658,1481.1881
1687.9458,1689.7921,1691.1593,1692.8762,1694.6918,1695.8733,1697.6904,1699.8958,1702.0126,1705.0792,1707.312,1707.8732,1708.1416,1708.6868,1709.3845,1710.2776,1711.0956,1712.8885,1714.8466,1716.4412,1718.1907,1719.4705,1721.0398,1722.4014,1723.228,1724.0317,1724.7205,1725.8141,1727.0594,1727.7697,1728.0076,1727.8812,1727.7997,1727.7499,1727.7222,1727.5549,1727.8281,1728.4478,1729.133,1729.6528,1729.7794,1730.0267,1730.4309,1731.0035,1731.7378,1732.3066,1733.0002,1733.8243,1734.4874,1735.1737,1735.682,1736.0249,1736.6991,1737.3932,1737.937,1738.3904,1738.6545,1739.7102,1740.7526,1741.0104,1741.2072,1741.2413,1741.0913,1740.7649,1740.472,1740.1351,1739.7855,1739.3798,1739.6156,1740.2816,1740.6627,1740.8295,1740.7906,1741.2631,1741.8192,1742.0461,1741.8745,1741.6555,1742.0144,1742.8202,1743.5544,1743.8844,1744.2313,1744.8589,1745.2175,1745.1528,1744.8811,1744.9346,1745.3948,1746.1665,1747.0253,1747.5333,1747.9775,1747.9819,1747.7114,1746.6461,1745.4,1744.5432,1743.9102,1743.5178,1743.1901,1743.253,1743.5759,1744.4756,1745.419,1746.1799,1746.0492,1745.1274,1743.6768,1741.6902,1739.6819,1737.2013,1735.2839,1733.407,1731.6506,1730.4384,1724.1832,1711.6633,1700.5634,1663.4032,1621.1847,1593.6876,1580.0186,1582.0332,1581.8026,1582.026,1582.122,1582.4194,1582.8046,1583.1658,1583.5244,1583.7184,1583.9349,1583.9181,1583.6456,1583.5377,1583.5725,1583.6085,1583.2612,1582.7516,1582.7949,1582.8076,1582.4982,1581.712,1580.6708,1579.8108,1578.3733,1576.9392,1575.2924,1573.4142,1571.9768,1570.3583,1569.0402,1568.0177,1566.726,1565.6956,1564.6592,1563.6637,1563.0317,1562.4364,1562.1263,1561.9948,1562.0464,1562.1306,1561.8927,1561.4337,1561.0193,1560.0494,1558.7468,1557.6698,1556.3292,1555.1748,1553.9612,1552.2731,1550.7953,1548.9463,1547.2255,1546.1179,1544.7612,1543.6929,1542.7949,1541.8745,1541.2584,1540.4952,1539.5754,1538.7546,1537.4951,1536.1666,1534.8992,1533.2482,1531.9207,1530.3633,1528.9803,1528.2181,1527.3845,1526.7648,1526.2764,1525.6102,1524.9341,1523.8035,1522.2905,1521.0895,1519.497,1517.9944,1516.7659,1515.4528,1514.5586,1513.4921,1512.441,1511.8029,1510.3804,1508.1771,1505.8065,1502.7498,1500.2069,1497.3201,1494.3878,1492.6393,1491.244,1490.2804,1489.4823,1487.2118,1484.521,1482.5004,1479.8047,1477.383,1474.6617,1472.2672,1470.6727,1468.9531,1467.7891,1466.8512,1465.8346,1465.0765,1464.6359,1462.4628,1458.453,1455.5782,1454.5712,1453.5427,1452.4879,1451.7476,1450.8639,1449.2866,1447.3901,1445.8243,1445.088,1444.657,1444.1506,1443.6426,1442.8495,1441.4829,1440.1005,1438.0972,1436.0397,1434.3978,1432.2156,1430.2863,1427.6643,1425.6309,1425.1772,1424.2463,1423.2699,1422.4818,1421.6453,1421.1726,1420.8551,1420.9208,1421.2631,1421.6987,1422.2853,1422.8564,1423.8018,1424.6129,1425.023,1425.4415,1425.8124,1426.0258,1426.3253,1426.7753,1427.6896,1428.8794,1430.1907,1432.2529,1434.1742,1436.519,1439.384,1441.9404,1445.3434,1448.1582,1450.0255,1452.4266,1454.5941,1457.5433,1460.5594,1462.4708,1464.4843,1465.9492,1467.0538,1468.9983,1470.9425,1472.6976,1474.2849,1475.3098,1476.7106,1478.2312,1479.7343,1481.6704
1688.8746,1690.6229,1691.8448,1693.5144,1695.3564,1696.5929,1698.4152,1700.6105,1702.7567,1705.8131,1708.0203,1708.625,1708.9532,1709.5305,1710.3617,1711.3392,1712.0878,1713.8159,1715.7443,1717.32,1719.0255,1720.2506,1721.7769,1723.1082,1723.9156,1724.6641,1725.2971,1726.3671,1727.6083,1728.3293,1728.5929,1728.4822,1728.3894,1728.325,1728.2885,1728.1257,1728.3887,1728.9884,1729.6752,1730.1965,1730.3125,1730.5481,1730.9263,1731.4512,1732.1165,1732.629,1733.2639,1734.0328,1734.6616,1735.323,1735.8094,1736.1162,1736.7432,1737.3931,1737.8534,1738.2432,1738.5026,1739.5818,1740.6622,1740.937,1741.1582,1741.2212,1741.1138,1740.858,1740.6312,1740.3645,1740.0702,1739.7054,1739.941,1740.5658,1740.894,1741.045,1741.038,1741.5048,1742.0288,1742.2133,1742.097,1741.9667,1742.2961,1743.1404,1743.9795,1744.3229,1744.6366,1745.2439,1745.6024,1745.5609,1745.3105,1745.4243,1745.9507,1746.7505,1747.6334,1748.1781,1748.6576,1748.6909,1748.4438,1747.4564,1746.3058,1745.536,1744.9677,1744.6012,1744.2563,1744.3267,1744.7642,1745.7242,1746.6354,1747.359,1747.1825,1746.2329,1744.7389,1742.696,1740.6525,1737.9893,1735.7893,1733.5837,1731.3032,1729.5948,1723.3807,1708.956,1693.5021,1648.4526,1602.5536,1584.8379,1579.3141,1580.2872,1580.3582,1580.8785,1581.1781,1581.6687,1582.1542,1582.5823,1582.9949,1583.2205,1583.4725,1583.4996,1583.2699,1583.2478,1583.3787,1583.4927,1583.2527,1582.8344,1582.9755,1583.0692,1582.8019,1582.0764,1581.0662,1580.1908,1578.7112,1577.2311,1575.5253,1573.5781,1572.0901,1570.4224,1569.0574,1567.983,1566.5999,1565.4772,1564.3438,1563.24,1562.5278,1561.8402,1561.4247,1561.1802,1561.0582,1560.9884,1560.6095,1560.0392,1559.5874,1558.7919,1557.8015,1556.9615,1555.8956,1554.9636,1553.996,1552.6442,1551.4465,1549.8866,1548.2173,1546.9395,1545.0707,1543.3652,1541.9115,1540.444,1539.5154,1538.383,1537.1302,1536.0814,1534.5834,1533.1012,1531.7135,1529.9869,1528.6489,1527.0659,1525.618,1524.7688,1523.793,1523.0239,1522.4132,1521.5944,1520.8236,1519.7025,1518.293,1517.1973,1515.7959,1514.4875,1513.3894,1512.1798,1511.3076,1510.2343,1509.0172,1508.129,1506.6743,1504.8668,1503.1409,1501.0347,1499.324,1497.2389,1495.2062,1494.1028,1492.6202,1491.0962,1489.9302,1487.665,1485.231,1483.1052,1480.44,1478.2618,1475.8445,1473.7963,1472.5007,1470.9526,1469.7456,1469.0558,1466.6746,1463.6493,1462.3276,1460.7401,1457.9377,1455.6984,1454.7704,1454.1216,1453.5438,1453.0479,1451.7778,1449.7388,1447.8412,1446.0741,1445.0668,1444.4755,1443.7117,1442.9564,1441.9413,1440.3479,1438.7855,1436.6106,1434.5577,1433.1274,1431.0809,1429.1996,1426.9523,1425.2289,1424.7781,1423.7535,1422.7653,1422.1853,1421.7107,1421.5707,1421.5455,1421.8312,1422.2521,1422.8228,1423.5227,1424.1492,1425.1489,1425.9878,1426.412,1426.8206,1427.1663,1427.3333,1427.5789,1427.9905,1428.8951,1430.0868,1431.3596,1433.3503,1435.2096,1437.5261,1440.3464,1442.8273,1446.1147,1448.8162,1450.5859,1452.8896,1454.9991,1457.8698,1460.8362,1462.7502,1464.7103,1466.1392,1467.3065,1469.2906,1471.2239,1472.9888,1474.5923,1475.6295,1477.0492,1478.5632,1480.024,1481.8904
1690.1176,1691.7433,1692.8873,1694.5453,1696.4344,1697.7291,1699.5524,1701.7219,1703.878,1706.9044,1709.0729,1709.7047,1710.0682,1710.6558,1711.6453,1712.7303,1713.3833,1715.0151,1716.892,1718.4371,1720.059,1721.1741,1722.6028,1723.862,1724.6304,1725.2981,1725.8573,1726.8859,1728.1443,1728.9263,1729.2665,1729.1981,1729.0862,1729.0042,1728.9603,1728.8069,1729.0587,1729.6307,1730.3093,1730.8212,1730.9199,1731.1322,1731.4728,1731.9415,1732.5289,1732.9789,1733.5469,1734.2509,1734.8369,1735.467,1735.9414,1736.237,1736.8594,1737.5066,1737.9286,1738.317,1738.6284,1739.7396,1740.8325,1741.1128,1741.3425,1741.4209,1741.3441,1741.1526,1740.993,1740.7977,1740.566,1740.2552,1740.4984,1741.0837,1741.3718,1741.505,1741.5117,1741.9553,1742.4431,1742.5979,1742.5502,1742.5006,1742.7532,1743.5942,1744.5288,1744.8516,1745.0836,1745.629,1745.9417,1745.9045,1745.6927,1745.8872,1746.4861,1747.3245,1748.2301,1748.7957,1749.3184,1749.4072,1749.2039,1748.3186,1747.2837,1746.637,1746.1626,1745.8278,1745.4865,1745.5565,1746.0641,1746.9451,1747.661,1748.2043,1747.8589,1746.8167,1745.2183,1743.0829,1740.9906,1738.0963,1735.4861,1732.669,1729.4288,1726.8257,1719.004,1700.106,1676.9594,1628.5096,1586.468,1577.8495,1578.6847,1578.6125,1578.9646,1579.8237,1580.3157,1580.9746,1581.5333,1582.0083,1582.4431,1582.6705,1582.9352,1582.9939,1582.8041,1582.8423,1583.033,1583.1914,1583.0396,1582.7056,1582.8544,1582.937,1582.6873,1582.0055,1581.0272,1580.1422,1578.6282,1577.1122,1575.3774,1573.4056,1571.9011,1570.2308,1568.8784,1567.8175,1566.454,1565.3417,1564.2026,1563.0533,1562.279,1561.4664,1560.8536,1560.3958,1559.9734,1559.6484,1559.0195,1558.2174,1557.6444,1556.9609,1556.2778,1555.691,1555.0272,1554.5049,1553.9728,1553.1239,1552.2749,1551.0739,1549.5554,1548.2168,1546.1487,1544.1952,1542.529,1540.8977,1539.916,1538.6732,1537.3043,1536.1771,1534.6194,1533.1283,1531.7502,1530.0731,1528.7955,1527.2797,1525.8718,1525.0198,1524.0226,1523.23,1522.6075,1521.8104,1521.1183,1520.2297,1519.1836,1518.3859,1517.4066,1516.5249,1515.7994,1514.9343,1514.2493,1513.4713,1512.4,1511.425,1509.9769,1508.3079,1506.828,1504.8589,1503.1359,1501.1597,1499.154,1497.9309,1495.5151,1492.8616,1491.1139,1488.7694,1486.6248,1484.3275,1481.6942,1479.8285,1477.5487,1475.4286,1473.9481,1472.2848,1471.0249,1470.4343,1466.996,1462.302,1460.2144,1459.2566,1457.9469,1456.4738,1455.5643,1455.2411,1454.9783,1454.5638,1452.9003,1450.5214,1448.7601,1446.8604,1445.5542,1444.7286,1443.7247,1442.8136,1441.589,1439.6874,1437.8224,1435.4156,1433.3431,1432.0552,1430.098,1428.2334,1426.199,1424.6104,1424.089,1423.1459,1422.39,1422.075,1421.9673,1422.1213,1422.3573,1422.8054,1423.2452,1423.8854,1424.6475,1425.2974,1426.3229,1427.1819,1427.6334,1428.0554,1428.3918,1428.5251,1428.73,1429.1172,1430.033,1431.247,1432.4965,1434.452,1436.2917,1438.6306,1441.4312,1443.8225,1446.9863,1449.5704,1451.2355,1453.427,1455.4595,1458.21,1461.0767,1462.961,1464.829,1466.1881,1467.3862,1469.3782,1471.2822,1473.0382,1474.6355,1475.6643,1477.0763,1478.5581,1479.9542,1481.7242
1692.1702,1693.7014,1694.9742,1696.7161,1698.6862,1700.0297,1701.8292,1703.9244,1706.0354,1708.9733,1711.0579,1711.6487,1711.9628,1712.4965,1713.457,1714.4877,1715.0326,1716.5615,1718.3772,1719.8619,1721.372,1722.3674,1723.6688,1724.8228,1725.5273,1726.122,1726.6271,1727.6068,1728.8258,1729.5925,1729.9163,1729.8331,1729.7081,1729.6167,1729.5757,1729.4413,1729.6847,1730.2236,1730.8877,1731.3864,1731.469,1731.6533,1731.9525,1732.3698,1732.8873,1733.2817,1733.7897,1734.4257,1734.9564,1735.5417,1736.0164,1736.3423,1737.0432,1737.7739,1738.2489,1738.7302,1739.1558,1740.2694,1741.2893,1741.5297,1741.7139,1741.7657,1741.6744,1741.5012,1741.3804,1741.2474,1741.0795,1740.8126,1741.0647,1741.6177,1741.8654,1741.952,1741.9298,1742.3217,1742.7462,1742.8405,1742.8203,1742.8197,1742.9844,1743.7578,1744.7017,1745.0059,1745.2058,1745.7177,1746.0441,1746.0688,1745.9279,1746.2153,1746.8787,1747.7494,1748.6615,1749.2288,1749.7455,1749.8303,1749.6302,1748.7833,1747.806,1747.2389,1746.8171,1746.4767,1746.1537,1746.2437,1746.7888,1747.5048,1747.9337,1748.2273,1747.654,1746.4827,1744.795,1742.6101,1740.4917,1737.3888,1734.2865,1730.3173,1726.198,1723.474,1712.7375,1685.4982,1648.2208,1603.572,1577.6476,1574.2236,1576.8883,1576.7495,1577.5164,1578.6842,1579.3375,1580.1322,1580.7396,1581.2351,1581.6605,1581.8721,1582.1605,1582.3428,1582.3402,1582.4949,1582.7096,1582.907,1582.8131,1582.5127,1582.5518,1582.5289,1582.2935,1581.6492,1580.712,1579.8591,1578.2858,1576.6614,1574.8828,1572.9269,1571.4677,1569.8455,1568.5775,1567.642,1566.4929,1565.5605,1564.5271,1563.3633,1562.4926,1561.571,1560.8196,1560.213,1559.578,1559.0569,1558.2041,1557.1548,1556.416,1555.5604,1554.7566,1554.0844,1553.4514,1553.063,1552.674,1551.945,1551.1305,1549.954,1548.4316,1547.072,1545.0454,1543.1553,1541.5,1539.8478,1538.8384,1537.6094,1536.2827,1535.192,1533.6691,1532.2183,1530.9149,1529.3137,1528.0691,1526.5739,1525.152,1524.2677,1523.2174,1522.3552,1521.6544,1520.7533,1519.9929,1519.0901,1518.0916,1517.3572,1516.4818,1515.7175,1515.1014,1514.3177,1513.6401,1512.8313,1511.691,1510.6562,1509.2391,1507.732,1506.4717,1504.7688,1503.2166,1501.3195,1499.3923,1498.2621,1496.1451,1493.7617,1492.0343,1489.7578,1487.8019,1485.9323,1483.8782,1482.3744,1479.8434,1476.7257,1474.0199,1471.6497,1470.3599,1469.4406,1466.2286,1462.1815,1460.0599,1459.049,1458.1053,1457.057,1456.5327,1456.7186,1456.5558,1455.7953,1453.9672,1451.5664,1449.8943,1447.8976,1446.3346,1445.2491,1443.9077,1442.7378,1441.2523,1439.0656,1436.9648,1434.4105,1432.2854,1430.8815,1428.9763,1427.3843,1425.9813,1424.8772,1424.343,1423.4731,1422.8177,1422.6001,1422.6404,1422.9227,1423.2661,1423.7924,1424.2601,1424.9594,1425.7758,1426.4509,1427.5074,1428.3921,1428.872,1429.318,1429.6619,1429.772,1429.9448,1430.3185,1431.2524,1432.4951,1433.7358,1435.6987,1437.5685,1439.9648,1442.7712,1445.0929,1448.1538,1450.6344,1452.212,1454.2863,1456.2185,1458.8444,1461.5864,1463.3904,1465.1505,1466.4357,1467.6226,1469.5669,1471.3997,1473.0933,1474.6221,1475.5951,1476.9481,1478.3546,1479.6466,1481.2748
